-0.0884226211675   0.120826523813 -0.0414915692455 3109.69882433
 -0.115226871087   0.122525912722 -0.0136635547243 3109.71872433
  -0.12938208743   0.105416741464 0.00548610343694 3109.73860433
-0.131564189901 0.0736914329965 0.0148382404586 3109.75848433
-0.124181137127 0.0338927517168 0.0150291548283 3109.77836433
  -0.110647692928 -0.00654325295772  0.00814029280923 3109.79866433
 -0.0945529222478  -0.0407252568215 -0.00286827588816 3109.81856433
-0.0789075519395 -0.0634198444403 -0.0148148803169 3109.83844433
 -0.065615155988 -0.0716786810333 -0.0248899114635 3109.85834433
-0.0552407039267 -0.0649696137652 -0.0310789240786 3109.87860433
-0.0470749933659 -0.0449107432006 -0.0323680244247 3109.89850433
-0.0394340106663 -0.0147528997823 -0.0287390149791 3109.91840433
-0.0301004819638  0.0212515655508 -0.0209996040899 3109.93828433
-0.0168125487595  0.0584912080646 -0.0105119264747 3109.95816433
0.00227622682973  0.0925838347289 0.00111647411582 3109.97810433
0.0282141304236  0.119869847625 0.0123256472694 3109.99834433
0.0609729338028    0.1377806072 0.0218430045938 3110.01822433
0.0992928062754  0.145057287648 0.0288496110064 3110.03810433
 0.140672943633  0.141804545201 0.0330662945595 3110.05798433
0.181535996028  0.12937979793 0.034760819063 3110.07786433
 0.217589404259  0.110140839524 0.0346806556876 3110.09818433
 0.244381875725 0.0870950145474 0.0339183705535 3110.11900433
 0.258007771751 0.0635045313726 0.0337225240013 3110.13884433
 0.255856176739 0.0425002256984 0.0352772413381 3110.15868433
 0.237253703741 0.0267417470314  0.039484409238 3110.17880433
 0.203832393934 0.0181430515872 0.0467872560689 3110.19898433
 0.159482661897 0.0176679330518 0.0570682806708 3110.21884433
 0.109829131817 0.0251979629528 0.0696388310252 3110.23868433
0.0612804162306 0.0394845987519 0.0833178551326 3110.25870433
0.0198237678656 0.0582108558854 0.0965806815995 3110.27854433
-0.0101734256306  0.0781942288464   0.107749901996 3110.29882433
-0.0268628586687  0.0957514239219   0.115200090817 3110.31866433
-0.0312703726008   0.107213887575   0.117553478381 3110.33890433
-0.0269835605229   0.109537808693   0.113850801107 3110.35870433
-0.0192167571762   0.100908004137   0.103686863632 3110.37884433
-0.0134679371228  0.0812087908868    0.08730177421 3110.39866433
-0.0141030198384  0.0522386814769  0.0656163108057 3110.41856433
-0.0232360860641  0.0175824399572  0.0401957414956 3110.43842433
-0.0402046716904 -0.0178824459923  0.0131249875151 3110.45830433
-0.0617841930912 -0.0487899166238 -0.0132157477364 3110.47820433
 -0.083087659304 -0.0702688033143  -0.036468669004 3110.49850433
-0.0989121904445 -0.0789169845247 -0.0546765062766 3110.51830433
 -0.105174486341 -0.0735558784925 -0.0666589953393 3110.53808433
 -0.100056106735 -0.0555801455586 -0.0723053984175 3110.55836433
-0.0845609363284 -0.0287911651958 -0.0727004736709 3110.57814433
-0.0623472073876 0.00128651087021  -0.070026107178 3110.59834433
-0.0388889104451  0.0284831294963 -0.0672265450048 3110.61828433
 -0.020192276259  0.0472295642555 -0.0674798396866 3110.63820433
-0.0113963577689  0.0536914009637 -0.0735669778389 3110.65812433
 -0.015598237387  0.0465295804967 -0.0872608061389 3110.67824433
-0.033166269194 0.0271142576213 -0.108862137698 3110.69818433
  -0.0616668472852 -0.000846121445664    -0.136988672907 3110.71902433
-0.0963736737125 -0.0321560618677  -0.168677082625 3110.73888433
  -0.13119662177 -0.0612525956947  -0.199798047756 3110.75876433
 -0.159792008143 -0.0833369335145  -0.225720503709 3110.77862433
  -0.17661003629 -0.0952856274433   -0.24210873131 3110.79898433
-0.177689863579 -0.096182312442 -0.245706147098 3110.81888433
 -0.161103349873 -0.0874045479421  -0.234959124253 3110.83878433
 -0.127043606904 -0.0722855978818   -0.21036252483 3110.85866433
-0.0776268714813 -0.0554329439106  -0.174459416862 3110.87856433
-0.0165111957978 -0.0418236867818  -0.131490344065 3110.89882433
 0.0515671853293 -0.0358202585205 -0.0867506646707 3110.91874433
   0.12126803287 -0.0402649011171 -0.0457667016134 3110.93862433
  0.187099232769 -0.0558156343195 -0.0134339674584 3110.95850433
  0.243847759623 -0.0806683006216 0.00673172581972 3110.97838433
 0.287006500965 -0.110756619313 0.0130982395908 3110.99866433
  0.313207158119  -0.140433889101 0.00608677942524 3111.01854433
  0.320641257652  -0.163532438465 -0.0120216597483 3111.03844433
  0.309411246139  -0.174600436083 -0.0376033135923 3111.05830433
   0.28171813836  -0.170061955667 -0.0664281046228 3111.07818433
   0.24178053712  -0.149053873261 -0.0944655346075 3111.09850433
 0.195407057475 -0.113759659602 -0.118594103719 3111.11846433
  0.149213261947 -0.0691641843089  -0.137068368407 3111.13838433
  0.109571582768 -0.0222664818549  -0.149651187411 3111.15830433
0.0814800244873 0.0191149729124 -0.157394559704 3111.17840433
0.0675980489402 0.0477403421881 -0.162133557216 3111.19834433
 0.067697405339 0.0583075362566 -0.165824903806 3111.21840433
0.0787010601624 0.0485241313947 -0.169898091414 3111.23814433
0.0953482268636  0.019673921697 -0.174782821083 3111.25828433
  0.111363317194 -0.0234685707233  -0.179731934667 3111.27802433
 0.120868472195 -0.073409267292 -0.182983912359 3111.29818433
  0.11970590998 -0.121283841786 -0.182221624316 3111.31904433
 0.106351171323 -0.158537703283 -0.175206491547 3111.33892433
0.0821981422694 -0.178589754372 -0.160420170736 3111.35882433
0.0511537590207  -0.17810996671  -0.13754280898 3111.37870433
0.0186523400857 -0.157612137778 -0.107639787766 3111.39898433
 -0.009658073793  -0.121219113798 -0.0730066803646 3111.41892433
-0.0292286222909 -0.0756599280577 -0.0367133791288 3111.43870433
  -0.037602497113  -0.0287496766782 -0.00196714706986 3111.45880433
-0.034860692357 0.0122737125031 0.0285416028515 3111.47860433
-0.0234412933248  0.0421630774285  0.0531493917813 3111.49882433
-0.00741265612111   0.0585214758578   0.0714702705974 3111.51872433
0.00859246676931  0.0619651475048  0.0843450540503 3111.53862433
0.0205115083008 0.0556298744428 0.0935246018099 3111.55850433
0.0257928895443 0.0442093422576  0.101181605161 3111.57840433
0.0239470626464 0.0327942357403  0.109373370435 3111.59866433
0.0166132103331 0.0257839504155   0.11957418978 3111.61864433
0.00715723814655   0.026083865504   0.132367998559 3111.63860433
-8.74154372404e-05    0.0347075941722     0.147351163211 3111.65854433
-0.000760905650322    0.0508038412597     0.163250985571 3111.67854433
0.00859637123107  0.0720428503432   0.178224683487 3111.69850433
0.0298062090537  0.095239968917  0.190271419116 3111.71866433
 0.06262418196  0.11706772202 0.197671016592 3111.73848433
0.104671144544 0.134711688288 0.199360859406 3111.75832433
0.151710166195 0.146354592947  0.19517786654 3111.77814433
0.198206444691 0.151419722725 0.185922224791 3111.79834433
0.238081004255 0.150558921933 0.173236836355 3111.81828433
0.265559598974 0.145420570508 0.159332571402 3111.83820433
0.276018725647 0.138268604019 0.146616622826 3111.85812433
0.266734331289 0.131538450222 0.137294917837 3111.87804433
 0.23744252822 0.127409739194 0.133018988053 3111.89818433
0.190626522793 0.127455078784 0.134635337711 3111.91920433
0.131454847962 0.132398836394 0.142074807492 3111.93904433
0.0673198967464  0.141998791182  0.154394181301 3111.95886433
0.0069693036955  0.155051564398  0.169955555364 3111.97870433
-0.0407116969429   0.169519076627   0.186704547148 3111.99898433
-0.0681271513526   0.182772192144   0.202490906712 3112.01888433
-0.0703855746904   0.191941328187   0.215369026265 3112.03878433
-0.0464271899563   0.194346640964    0.22382365066 3112.05868433
0.000415539934103    0.187954059664    0.226886508038 3112.07856433
0.0626342007577  0.171778178923  0.224137628392 3112.09882433
0.129608116204 0.146143446745 0.215613639913 3112.11880433
0.189399311058 0.112731681981 0.201666987166 3112.13876433
 0.230972879144 0.0743861289505  0.182828840644 3112.15872433
 0.246397433172 0.0346978423159  0.159721166999 3112.17868433
   0.232537299429 -0.00254868762894    0.133040875254 3112.19866433
  0.191824678897 -0.0339628572616   0.103607387671 3112.21882433
   0.13188688368 -0.0570577100419  0.0724353140696 3112.23866433
 0.0640599178493 -0.0705954272421  0.0407780991136 3112.25848433
0.00108241153052  -0.074722152906  0.0100942364888 3112.27830433
-0.0455344585322 -0.0708885223313 -0.0180857739337 3112.29850433
 -0.067878973498 -0.0615853015979 -0.0423753253994 3112.31848433
-0.0632242645052 -0.0499416990121 -0.0617782142852 3112.33844433
-0.0344801466752 -0.0392404052116 -0.0758934424544 3112.35840433
  0.010571454449 -0.0324063466284 -0.0850097591926 3112.37836433
 0.0610599247715 -0.0315320589386 -0.0900490246587 3112.39834433
  0.105402827904 -0.0375112353151 -0.0923607364324 3112.41844433
   0.13372966052 -0.0498554427183 -0.0934149137123 3112.43838433
  0.139818113584 -0.0667559751977 -0.0944719389124 3112.45830433
   0.12214714555 -0.0854159543246 -0.0963152997158 3112.47824433
 0.0838979503011  -0.102619647029 -0.0991141724903 3112.49818433
0.0319884516245 -0.115440533377 -0.102444259736 3112.51930433
-0.0245567207808  -0.121938157557  -0.105450472718 3112.53918433
-0.0764738884683  -0.121676400375  -0.107098497604 3112.55906433
-0.115930792291  -0.11592284973 -0.106444535574 3112.57894433
-0.137666347755 -0.107456087115 -0.102856694038 3112.59898433
 -0.139440155823 -0.0999976576642 -0.0961431840539 3112.61896433
 -0.121825870258 -0.0973749555081 -0.0865723782184 3112.63892433
 -0.087541653491  -0.102588886955 -0.0747979287865 3112.65888433
-0.0405948214362  -0.116991528193 -0.0617214148267 3112.67884433
 0.0144904413147  -0.139767740417 -0.0483326936138 3112.69882433
 0.0731824363231  -0.167861971368 -0.0355654311458 3112.71894433
  0.131142933456  -0.196405219222 -0.0241953839192 3112.73878433
  0.184206325523  -0.219591808472 -0.0147954753494 3112.75862433
 0.228308514851 -0.231851154562 -0.007747641511 3112.77846433
   0.259547895985   -0.229078878969 -0.00329920049147 3112.79866433
   0.274495306475   -0.209655742471 -0.00164280301164 3112.81864433
    0.27075122085   -0.175006053368 -0.00299476925947 3112.83860433
   0.247618411631   -0.129531249547 -0.00764696065737 3112.85856433
  0.206664606923 -0.0798855425132 -0.0159717956789 3112.87852433
  0.151930772148 -0.0337107615857 -0.0283678442726 3112.89850433
 0.0896111042533  0.0019194091893 -0.0451441132258 3112.91866433
 0.0271739330147  0.0220141489935 -0.0663545886832 3112.93858433
-0.0279354050723  0.0247999446162 -0.0916104268962 3112.95850433
-0.0697241094661  0.0122057339553   -0.11991301506 3112.97842433
-0.0948597516506 -0.0104369277712  -0.149561573486 3112.99834433
 -0.103334890511 -0.0354461564443   -0.17818689488 3113.01862433
-0.0983946178071 -0.0543942721283  -0.202943097649 3113.03850433
-0.0857209571538  -0.059933427229  -0.220852994367 3113.05838433
 -0.072062538734 -0.0474480818889  -0.229258673534 3113.07826433
-0.0636432826625 -0.0161638796744  -0.226291089754 3113.09818433
-0.0647387918872  0.0305466422818  -0.211254354448 3113.11916433
-0.0767603172274  0.0857452489484  -0.184829776979 3113.13912433
-0.098050994585  0.140280208683 -0.149040841121 3113.15906433
-0.124418280849  0.184619663803  -0.10697433855 3113.17902433
 -0.150249424271   0.210771423137 -0.0623101823338 3113.19898433
-0.169926404762  0.213882749258 -0.018756700538 3113.21916433
 -0.17919989712  0.193194137261 0.0204931471007 3113.23900433
-0.176205558507  0.152169425408 0.0531802925435 3113.25882433
-0.161899089397  0.097802523172 0.0782034598368 3113.27866433
-0.139823904085 0.0392677830211 0.0956253158804 3113.29882433
 -0.115274241287 -0.0137965614239    0.10648205527 3113.31880433
-0.0940447528164 -0.0530242157928   0.112451153662 3113.33876433
-0.0810401925033 -0.0727399266906   0.115451342671 3113.35872433
-0.0790432043122 -0.0708016994533   0.117253723728 3113.37868433
-0.0879046728573 -0.0487308199128   0.119174189267 3113.39866433
 -0.104339893138 -0.0111449888228   0.121896627351 3113.41882433
-0.122400818944 0.0353441621372  0.125447316036 3113.43874433
-0.134567979114 0.0835001431485  0.129309300556 3113.45866433
-0.133284035192  0.126786836355    0.1326382457 3113.47858433
-0.112653126286  0.160376670118  0.134524068536 3113.49850433
-0.0699739430353   0.181673600943   0.134238684105 3113.51872433
-0.00677471527011    0.190323054354    0.131419203927 3113.53862433
0.0709166886124  0.187812330129  0.126154622037 3113.55850433
0.153206921316 0.176847611825 0.118967089543 3113.57840433
0.227841420767  0.16070679033 0.110700651566 3113.59834433
0.282355609776 0.142715887936 0.102346607699 3113.61828433
 0.306485962356  0.125908537245 0.0948437281621 3113.63838433
0.294356820528 0.112840920233 0.088893634917 3113.65832433
 0.245960220599  0.105482365859 0.0848274626335 3113.67824433
0.167557034727 0.105100745612 0.082549744532 3113.69818433
0.0708338494989  0.112105649282  0.081569734777 3113.71942433
-0.0290882780681   0.125876247015  0.0811110504169 3113.73930433
-0.116436589242  0.144652877963 0.0802719202386 3113.75920433
-0.177806904376  0.165586832536 0.0781962486693 3113.77908433
-0.204784718671  0.185013730125 0.0742149966216 3113.79898433
-0.195590016839  0.198953588745 0.0679293746405 3113.81916433
-0.155364987782   0.20376882782 0.0592284333145 3113.83908433
-0.0950170888864   0.196855159756  0.0482560034017 3113.85898433
-0.0288544313709   0.177216567747  0.0353564688461 3113.87890433
0.0284703796744  0.145789129364 0.0210293006724 3113.89882433
 0.0650268713736   0.105423917522 0.00590864161663 3113.91898433
 0.0739956272292  0.0605057558355 -0.0092368161128 3113.93890433
 0.0548485852775  0.0162595198089 -0.0235067529337 3113.95882433
  0.013077237085 -0.0221348346116 -0.0359051595635 3113.97874433
-0.0414255575764 -0.0504482823408 -0.0454323206115 3113.99866433
-0.0969009275014 -0.0661452444899 -0.0512371892959 3114.01884433
  -0.14253383082 -0.0688071754781 -0.0528108061942 3114.03876433
 -0.170848618039 -0.0601514756697 -0.0501801042426 3114.05866433
-0.179134762437 -0.043653251155 -0.044048943322 3114.07858433
 -0.169620329458 -0.0238669755358 -0.0358339449167 3114.09850433
  -0.148444240534 -0.00560363294721  -0.0275580983621 3114.11848433
 -0.123777533847 0.00686885718664 -0.0215929593524 3114.13844433
 -0.103628767966  0.0104652113977 -0.0202749629369 3114.15840433
-0.0938981105228  0.0036819282609 -0.0254554047436 3114.17836433
-0.0971251814175 -0.0132658931485 -0.0380692638213 3114.19834433
 -0.112155472108 -0.0385487068039 -0.0578184807205 3114.21834433
 -0.134699806308 -0.0690246682212 -0.0830557326964 3114.23830433
-0.158550563477 -0.100692397289 -0.110923681761 3114.25826433
-0.177096114504 -0.129248904427 -0.137755573946 3114.27822433
-0.184758678728 -0.150704208444 -0.159684867001 3114.29818433
 -0.17805732426 -0.161990397585 -0.173357251678 3114.31912433
-0.156131750106 -0.161481677045 -0.176602164861 3114.33908433
-0.120709287001 -0.149325374187 -0.168914524251 3114.35904433
-0.0756169015026  -0.127487916237  -0.151627021715 3114.37900433
-0.0260066474369 -0.0994566757246  -0.127716202087 3114.39898433
 0.0225274869865 -0.0696092093216   -0.10126893191 3114.41896433
 0.0647963721104  -0.042351334308 -0.0767187539542 3114.43892433
  0.096731434781 -0.0212070326388  -0.058020582048 3114.45888433
   0.115917899965 -0.00808455769751  -0.0479491533894 3114.47884433
  0.121917257403 -0.0029215302037 -0.0476755609416 3114.49882433
   0.116354016162 -0.00382465671922   -0.056705213251 3114.51888433
   0.102737676177 -0.00768816585532   -0.073169148994 3114.53882433
 0.0859962250131  -0.011137774044 -0.0943731478022 3114.55878433
  0.071726370761 -0.0115467507501  -0.117448141728 3114.57872433
  0.0652220134544 -0.00783988645311    -0.13992672494 3114.59866433
   0.0704155943098 -0.000851625326749    -0.160099495181 3114.61864433
0.0889329514965 0.0068760222786 -0.177074895379 3114.63860433
 0.119491178045 0.0118145448289 -0.190558693089 3114.65856433
 0.157836950609 0.0104992575444  -0.20045742522 3114.67852433
   0.197324112387 0.000619831122369   -0.206466099698 3114.69850433
  0.23008179017 -0.018159159806 -0.207804476617 3114.71862433
  0.248565897274 -0.0438921534942  -0.203214860353 3114.73854433
  0.247164181515 -0.0726676773608  -0.191243064618 3114.75848433
 0.223478727073 -0.099477124142 -0.170723339095 3114.77840433
 0.178961332314 -0.119408246712 -0.141312196456 3114.79834433
 0.118720133776 -0.128834768833 -0.103891554022 3114.81832433
 0.0505158928365  -0.126269598756 -0.0606965234899 3114.83830433
-0.0168302356664  -0.112646009513 -0.0151047385527 3114.85826433
-0.0752461287493  -0.090960427198  0.0288758356413 3114.87822433
 -0.119010852539 -0.0653979951353  0.0672975238302 3114.89818433
 -0.145782122837 -0.0402067603926  0.0969720795673 3114.91916433
-0.156830152807 -0.018642878773  0.116012139617 3114.93912433
  -0.156455279079 -0.00226484045475    0.124098286811 3114.95906433
 -0.150757322358 0.00926793488492   0.122432407024 3114.97902433
-0.146062547699 0.0178908319752  0.113418515609 3114.99898433
-0.147371253518 0.0264568107985  0.100172167036 3115.01896433
-0.157161047189 0.0378957582479 0.0859839573501 3115.03892433
 -0.17478439406 0.0544274703929 0.0738493350967 3115.05888433
-0.196563565625 0.0769958526597 0.0661360033884 3115.07884433
-0.216543947169  0.105012798384 0.0644090684225 3115.09882433
-0.227744554124  0.136420582983 0.0693908673109 3115.11880433
-0.223659739686  0.168022146821  0.081009627211 3115.13878433
-0.199726407994  0.195997243679 0.0984919774935 3115.15874433
-0.154477972535   0.21651564074   0.12047262736 3115.17870433
-0.0901570512324   0.226365895471   0.145118148132 3115.19866433
-0.0126472064731   0.223527510649   0.170278498749 3115.21882433
0.069300534059 0.207616948654 0.193682293228 3115.23874433
0.145443422073 0.180133712359 0.213179410776 3115.25866433
0.205802669347 0.144430903359 0.227012871511 3115.27858433
0.242486952304 0.105351107786 0.234079444974 3115.29850433
 0.251231754462 0.0685165874134  0.234123889392 3115.31848433
0.232327190696   0.0393433798 0.227811735715 3115.33846433
 0.190700700855 0.0219441743817  0.216643077322 3115.35842433
 0.135075018765 0.0181613463281   0.20270247542 3115.37838433
0.0763121986268 0.0269928159169  0.188279637502 3115.39834433
0.0252437984959  0.044616325571  0.175430196901 3115.41826433
-0.00956935946409   0.0650851886507     0.16556489044 3115.43846433
-0.0236492804843  0.0815922646163   0.159153207988 3115.45836433
-0.0175459614566  0.0880305635426   0.155605599629 3115.47826433
0.00334828767116  0.0804730921053    0.15336314316 3115.49818433
 0.030121306998 0.0581898079106  0.150183547217 3115.51922433
0.0525252593767 0.0239240735004  0.143574943216 3115.53916433
 0.0615173401623 -0.0166614407515    0.13129967395 3115.55910433
 0.0515393877736 -0.0562420528926   0.111853223678 3115.57904433
 0.0219622505624 -0.0874801976292  0.0848216446861 3115.59898433
-0.0226833352318  -0.104657293988  0.0510366759302 3115.61890433
-0.0737656983067  -0.104893863639  0.0124819653184 3115.63906433
 -0.120647077953 -0.0886824038992 -0.0280465395835 3115.65898433
 -0.153290021803 -0.0596430648225 -0.0674666411094 3115.67890433
 -0.164715238774 -0.0236096561434  -0.103014382903 3115.69882433
 -0.15268943297 0.0126912077861 -0.132793799807 3115.71898433
-0.120226392161 0.0430297841599 -0.156146975472 3115.73890433
-0.0747996132799  0.0628105874406  -0.173760131369 3115.75882433
-0.0265015977575  0.0697311377971  -0.187482917831 3115.77874433
0.0143510942477 0.0638749336772 -0.199903341308 3115.79866433
 0.039548627256 0.0472946276247 -0.213774105649 3115.81864433
0.0446881243845 0.0232526694067 -0.231416894577 3115.83860433
  0.0298754053156 -0.00465643959235   -0.254234255923 3115.85856433
-0.000660180542323   -0.0332818908939    -0.282434181513 3115.87852433
-0.0398478075938 -0.0604258527677  -0.315024824107 3115.89850433
-0.0795599769727 -0.0850112463861  -0.350075539584 3115.91842433
-0.112421327107 -0.106931795164 -0.385179193539 3115.93864433
-0.133207053081 -0.126691250754 -0.418004478499 3115.95854433
-0.139545948426  -0.14498453747  -0.44680808557 3115.97844433
-0.131849827365 -0.162369691042 -0.470790090858 3115.99834433
-0.112597061525 -0.179127862635 -0.490217637404 3116.01832433
-0.0852497913857  -0.195327169474  -0.506299608511 3116.03830433
-0.0531469552316  -0.211023753551  -0.520852558455 3116.05826433
-0.0186801411732   -0.22647981801  -0.535841676195 3116.07822433
0.0170550731603 -0.242272733863 -0.552901857628 3116.09818433
0.0540951891658 -0.259212745642 -0.572941604724 3116.11908433
0.0930467598936 -0.278062940315 -0.595910019666 3116.13922433
   0.1343484767 -0.299136972597 -0.620770844294 3116.15914433
0.177617870162 -0.32190991485 -0.64568467977 3116.17906433
 0.221305480462 -0.344795846658 -0.668359136675 3116.19898433
 0.262778767612  -0.36521541079 -0.686494565276 3116.21914433
 0.298823712287 -0.380003750278 -0.698236510468 3116.23906433
 0.326422422666 -0.386111193719 -0.702547997781 3116.25898433
 0.343577717996 -0.381450336615 -0.699433627496 3116.27890433
 0.349936461284 -0.365671190396 -0.689978065997 3116.29882433
  0.34701806464 -0.340625369381 -0.676197163815 3116.31878433
 0.337966307206 -0.310325845716 -0.660734148402 3116.33884433
 0.326877475329 -0.280319964585 -0.646460651562 3116.35878433
 0.317876072424 -0.256550330284 -0.636058271948 3116.37872433
 0.314177739719 -0.243942478748 -0.631657759299 3116.39866433
 0.317379804292 -0.245079494604 -0.634598542761 3116.41860433
 0.327154023144 -0.259353007595 -0.645342857706 3116.43874433
 0.341402269373 -0.282889381381 -0.663541372309 3116.45866433
 0.356806364262 -0.309350286171 -0.688209927522 3116.47858433
 0.369596748213 -0.331452753779 -0.717951069286 3116.49850433
 0.376315591723 -0.342827748563 -0.751149340112 3116.51850433
 0.374375554536 -0.339717020004 -0.786089233774 3116.53846433
 0.362306695622 -0.322038234241 -0.820983224828 3116.55842433
 0.339706212621 -0.293518425667 -0.853940437336 3116.57838433
 0.307010442982 -0.260850164919 -0.882938029605 3116.59834433
 0.265253968975 -0.232085499384 -0.905864360805 3116.61826433
 0.215949771281 -0.214676533951 -0.920679944789 3116.63844433
 0.161133196259 -0.213651139383 -0.925693743012 3116.65836433
 0.103502905801 -0.230365703925 -0.919894677435 3116.67826433
 0.046512694479 -0.262125182245 -0.903235413328 3116.69818433
-0.00574603262066   -0.302747849495   -0.876758975167 3116.71912433
-0.0489716410709  -0.343931896663  -0.842495566707 3116.73910433
-0.0793752360733  -0.377104131053  -0.803124979741 3116.75906433
-0.0945536672509  -0.395333477988  -0.761474589782 3116.77902433
-0.0942662434706  -0.394886909239  -0.719978794106 3116.79898433
-0.0808400617522   -0.37608471335  -0.680245456299 3116.81894433
-0.058993743974 -0.343255400629  -0.64285209139 3116.83896433
-0.0350190283113  -0.303773969219  -0.607433887006 3116.85890433
-0.0154529011878  -0.266364139004  -0.573042356359 3116.87886433
-0.0055471113571  -0.239022617612  -0.538670493858 3116.89882433
-0.00793456662776   -0.227041097212   -0.503783220703 3116.91878433
-0.0218657286735  -0.231618437865  -0.468681176913 3116.93878433
-0.0432459896496  -0.249445509883  -0.434569762181 3116.95874433
-0.0654906673599   -0.27341663848  -0.403294557104 3116.97870433
-0.0809948452534  -0.294326781168  -0.376812208539 3116.99866433
-0.0828569857804  -0.303138795695  -0.356556034699 3117.01864433
-0.0664411655252  -0.293240049934  -0.342895736429 3117.03860433
-0.0304214447641  -0.262107690076   -0.33486655384 3117.05856433
0.0229012354785 -0.211965774998 -0.330264415038 3117.07852433
0.0880307090297 -0.149291238272 -0.326097248338 3117.09850433
  0.157300589559 -0.0833271674449  -0.319281505813 3117.11844433
  0.222219846831 -0.0240085310909  -0.307404958279 3117.13850433
 0.274833498373 0.0201660571459 -0.289358959842 3117.15848433
 0.308843488639 0.0438032126007 -0.265678945738 3117.17840433
 0.320340838724 0.0454686756386 -0.238509708208 3117.19834433
 0.30811960622 0.027612971967 -0.21120893517 3117.21832433
   0.273636023169 -0.00429586281085   -0.187690931636 3117.23828433
  0.220717894825 -0.0431185976657  -0.171669307484 3117.25824433
  0.155117661087 -0.0814942597308  -0.165970782658 3117.27820433
0.0839563398225 -0.113073879308 -0.172062867151 3117.29818433
 0.015057204861 -0.133356344743 -0.189877203979 3117.31910433
-0.0438498044998   -0.14009664438  -0.217935768166 3117.33914433
-0.086041187637 -0.133364105282 -0.253719073343 3117.35908433
-0.106746513252 -0.115358994469 -0.294170898397 3117.37902433
 -0.103963092779 -0.0900604037306  -0.336221003762 3117.39898433
-0.0789267246796 -0.0627193193676  -0.377223191922 3117.41892433
 -0.036050682968 -0.0391772335357  -0.415240166432 3117.43902433
 0.0177514472541 -0.0250117264803    -0.4491464403 3117.45896433
 0.0742857043503 -0.0245823293214  -0.478557069832 3117.47888433
   0.12560507636 -0.0401395583485  -0.503619156942 3117.49882433
  0.165498880472 -0.0712200611367  -0.524723662906 3117.51886433
 0.190582384309 -0.114539873615  -0.54220641952 3117.53880433
  0.20071401386 -0.164499572155 -0.556108267458 3117.55874433
 0.198640895035   -0.2142509515 -0.566053858867 3117.57868433
 0.188982052069 -0.257100369622 -0.571286197945 3117.59866433
 0.176839630781 -0.287906122068  -0.57086047444 3117.61892433
 0.166425230378 -0.304112778275 -0.563960637241 3117.63896433
 0.160069679965 -0.306159727964 -0.550264439166 3117.65880433
 0.157856998033 -0.297170887086 -0.530259200516 3117.67864433
 0.157929320371 -0.282024836064 -0.505411470452 3117.69850433
 0.157312105152  -0.26606691708 -0.478122557105 3117.71876433
 0.152968931856 -0.253814669105 -0.451452580915 3117.73868433
 0.142752245045 -0.247999093805 -0.428654285371 3117.75856433
 0.125977640405 -0.249174763252 -0.412607396997 3117.77846433
 0.103489440645 -0.255952747821 -0.405271510283 3117.79834433
0.0772560410271 -0.265722074488 -0.407274816212 3117.81894433
0.0496793700857 -0.275595123999  -0.41772973665 3117.83900433
0.0228788213312 -0.283282690163 -0.434321429683 3117.85872433
-0.00180430568876   -0.287673500877   -0.453660200959 3117.87844433
-0.0239303549083  -0.289019651391  -0.471835441676 3117.89818433
-0.0436998321381   -0.28875801832  -0.485069836773 3117.91898433
-0.0614277496195  -0.289084680784  -0.490358373838 3117.93940433
-0.0769612426263  -0.292426812386  -0.485988127212 3117.95930433
-0.0892645935197  -0.300932339635  -0.471862189274 3117.97914433
-0.0963442473729  -0.316047589833  -0.449580600799 3117.99898433
-0.0955866749717  -0.338208541115  -0.422255114919 3118.01922433
-0.0844623809223  -0.366654472932  -0.394057500133 3118.03920433
-0.0614385288933  -0.399384500892  -0.369534564379 3118.05912433
-0.0268652660916  -0.433295107662  -0.352773980161 3118.07898433
0.0164244972874 -0.464529416094 -0.346564464112 3118.09882433
0.0630254276845 -0.489021842488 -0.351736967028 3118.11860433
 0.105506854773 -0.503152254828  -0.36687111699 3118.13908433
 0.135581139548 -0.504372680391 -0.388487211227 3118.15910433
 0.145718405267 -0.491671512559 -0.411727395561 3118.17886433
 0.130892585301 -0.465796014412 -0.431393248498 3118.19866433
 0.090061679761 -0.429229760514 -0.443096036919 3118.21846433
0.0269922486769 -0.385973867791 -0.444231233875 3118.23838433
-0.0498530309921   -0.34118601636  -0.434531306146 3118.25868433
 -0.12845043715 -0.300698768398 -0.416071258471 3118.27870433
-0.195219974118  -0.27040173991 -0.392760861911 3118.29850433
-0.237527034067 -0.255467274722 -0.369499063862 3118.31826433
-0.246167853787 -0.259446645336 -0.351238278278 3118.33832433
-0.217304527846 -0.283355481444 -0.342186997454 3118.35822433
-0.153419697472 -0.324965678643 -0.345286680097 3118.37828433
-0.0630647408835  -0.378571514409  -0.361981189739 3118.39834433
0.0405701638733 -0.435452197651 -0.392206116116 3118.41822433
  0.14198782762 -0.485099219497 -0.434492190378 3118.43812433
0.226154161253 -0.51705364891 -0.48610215612 3118.45822433
 0.281156310872 -0.522985761165 -0.543180292683 3118.47832433
 0.300229358915 -0.498532120698 -0.600954918621 3118.49818433
 0.282771061127 -0.444432140913 -0.654066348588 3118.51922433
 0.234177910619 -0.366667543966 -0.697077592989 3118.53904433
 0.164576702942 -0.275546072372 -0.725162506206 3118.55886433
0.0867426216228 -0.183911128795 -0.734877498967 3118.57890433
0.0136437800839 -0.104842451172 -0.724846457522 3118.59898433
-0.0438951520445  -0.049307811422  -0.696163516758 3118.61916433
-0.0789682113766 -0.0242236009354  -0.652365091098 3118.63904433
-0.0894986777147 -0.0312896479389  -0.598929770113 3118.65888433
-0.0781735401455 -0.0668006426969  -0.542393832847 3118.67872433
-0.0514926733638  -0.122437925405  -0.489274301437 3118.69882433
 -0.01819169704 -0.186855866819 -0.445036572186 3118.71892433
0.0126020849244 -0.247737689329 -0.413320528861 3118.73892433
0.0331050723367 -0.293930240521  -0.39556213913 3118.75876433
0.0381923673115 -0.317279093553 -0.391044904082 3118.77858433
0.0261019291326 -0.313862594571 -0.397317021904 3118.79866433
-0.00151831772393   -0.284446370647   -0.410839154368 3118.81848433
-0.0401359212192  -0.234123981568  -0.427697599313 3118.83860433
-0.083258901003 -0.171248137228 -0.444231081819 3118.85848433
 -0.12355412799 -0.105866545675 -0.457468574437 3118.87832433
 -0.153970035693 -0.0479429503291  -0.465343889081 3118.89850433
  -0.168723480236 -0.00566455138317   -0.466718258901 3118.91860433
-0.164067746572 0.0158847924283 -0.461284040041 3118.93908433
-0.138804567901 0.0154674261121 -0.449429541822 3118.95884433
 -0.0945271144655 -0.00426918519521   -0.432119865517 3118.97858433
-0.0355839499927 -0.0374517583317  -0.410807754771 3118.99834433
 0.0312529237416 -0.0762015113121  -0.387353255436 3119.01814433
0.0974325071113 -0.112170965068 -0.363917309525 3119.03862433
 0.153575720361 -0.138094724686 -0.342805155588 3119.05900433
 0.190677102245 -0.149054302684 -0.326260369279 3119.07858433
 0.201433780207 -0.143218192324 -0.316233340127 3119.09818433
 0.181512022318 -0.121928624717 -0.314156894421 3119.11876433
  0.130520541617 -0.0891489847795  -0.320755776647 3119.13866433
0.0524633591667 -0.050431867259 -0.335905392438 3119.15980433
-0.0444961984289 -0.0116773122385  -0.358550658676 3119.17938433
-0.149017789577 0.0220130180045 -0.386702833968 3119.19898433
-0.248224394047 0.0471310370099 -0.417543924849 3119.21886433
-0.329761997042 0.0620714001624 -0.447670129456 3119.23946433
 -0.38392048652 0.0669629152389 -0.473485572192 3119.25968433
-0.405402287096 0.0631512116036 -0.491714698717 3119.27926433
-0.394355865989 0.0525281945036 -0.499949900485 3119.29882433
-0.356411995958  0.036908393199 -0.497112938339 3119.31832433
-0.301654580776 0.0176060346234  -0.48370537578 3119.33812433
  -0.242687339787 -0.00471021460598   -0.461762614943 3119.35936433
 -0.192170326786 -0.0298931543145  -0.434498574261 3119.37920433
 -0.160340678401 -0.0580046809144   -0.40570995726 3119.39866433
 -0.153057259573 -0.0889396266736  -0.379073381308 3119.41836433
-0.170803420652 -0.122115422579 -0.357495706514 3119.43802433
-0.208865667419 -0.156326181008 -0.342661415913 3119.45840433
-0.258630933222 -0.189805009682 -0.334867841279 3119.47884433
-0.309682133316  -0.22047738335 -0.333165822301 3119.49850433
 -0.35218937061  -0.24633758834 -0.335750469392 3119.51818433
-0.379038686157 -0.265850416683 -0.340492781754 3119.53788433
-0.387222567798 -0.278275574671   -0.3454798219 3119.55840433
-0.378210871857 -0.283831564526 -0.349441149902 3119.57806433
-0.357274167442 -0.283654466693  -0.35197552803 3119.59834433
-0.331978691024 -0.279557361001 -0.353542696196 3119.61792433
-0.310253213363 -0.273646650723  -0.35523794955 3119.63748433
 -0.29850276041 -0.267888331735 -0.358412242433 3119.65748433
-0.300200265422 -0.263728549124 -0.364230246395 3119.67784433
 -0.31524329898 -0.261855047836 -0.373268288504 3119.69818433
-0.340162219939 -0.262146194738 -0.385241577106 3119.71882433
-0.369063397699 -0.263805770937 -0.398918436603 3119.73844433
-0.395036885292 -0.265638517089 -0.412236497676 3119.75806433
-0.411683945271 -0.266392532243 -0.422593102844 3119.77822433
-0.414433395155 -0.265083728102 -0.427249663334 3119.79898433
-0.401401444472 -0.261224970671 -0.423772762563 3119.81886433
-0.373676777703 -0.254906912237 -0.410433595789 3119.83874433
-0.335044517289 -0.246715034723  -0.38649874743 3119.85882433
-0.291267020737 -0.237510439612 -0.352365398883 3119.87896433
-0.249096918887 -0.228139337586 -0.309519385096 3119.89882433
-0.215206803972 -0.219156597962 -0.260322306284 3119.91900433
-0.195194256077 -0.210644714131 -0.207661646428 3119.93878433
-0.192780456684 -0.202181148776 -0.154522552647 3119.95854433
-0.209281226435 -0.192962480204 -0.103557365833 3119.97840433
 -0.243396846669  -0.182046975812 -0.0567339336641 3119.99866433
 -0.291339138807  -0.168642781182 -0.0151317552911 3120.01904433
-0.347285862648 -0.152357128642 0.0210747083086 3120.03880433
-0.404120176851 -0.133335596539 0.0524487290008 3120.05886433
-0.454376759906  -0.11225414091 0.0799879824428 3120.07862433
 -0.491279922981 -0.0901692346932   0.104767275304 3120.09850433
 -0.509729938426 -0.0682704671102   0.127622086726 3120.11888433
 -0.507081830996 -0.0476056770585   0.148954587983 3120.13874433
 -0.483575677336 -0.0288559001001   0.168708562092 3120.15868433
 -0.442323607505 -0.0122245806466   0.186512348426 3120.17840433
 -0.388831819592 0.00252577430446   0.201942691786 3120.19824433
-0.330122383031 0.0158998977787  0.214829528124 3120.21814433
-0.273600361556 0.0284130547648  0.225510866397 3120.23848433
-0.225868001529  0.040333230346  0.234960823432 3120.25854433
-0.19170542255 0.051504215564   0.2447486324 3120.27826433
-0.173409856276  0.061303209002  0.256832138877 3120.29818433
-0.170615400707 0.0687417145393  0.273232692293 3120.31970433
-0.180614974428 0.0726756148008  0.295667242855 3120.33996433
 -0.19909761618 0.0720644501582  0.325220874435 3120.35986433
-0.221124499974 0.0662165234273  0.362129112139 3120.37938433
-0.24212014254 0.054971041592  0.40571040098 3120.39898433
-0.258664118369  0.038791351943  0.454454399053 3120.41906433
-0.268930034823 0.0187646820139  0.506240097962 3120.43928433
  -0.272714496058 -0.00348251839394    0.558635734669 3120.45920433
-0.271102373339 -0.025939597536  0.609223079916 3120.47892433
 -0.26589848292 -0.046423155855  0.655891701526 3120.49882433
 -0.258999508445 -0.0628298603896   0.697061282486 3120.51844433
 -0.251875420413 -0.0734083262531   0.731807738913 3120.53878433
 -0.245281532408 -0.0770153178478   0.759887461043 3120.55944433
 -0.239246260056 -0.0733112084521    0.78167011506 3120.57904433
-0.233297339067 -0.062850674349  0.798001886521 3120.59866433
  -0.22682300724 -0.0470404684202   0.810026832895 3120.61890433
 -0.219431932876 -0.0279610252859   0.818994487163 3120.63896433
  -0.211184711076 -0.00807231957049    0.826078564575 3120.65906433
-0.202616939626 0.0101589925021  0.832226596822 3120.67856433
-0.194544233957 0.0246622578959  0.838054983909 3120.69850433
-0.187711075176 0.0341347360051  0.843798594222 3120.71898433
 -0.18239651585 0.0383125796673  0.849318235932 3120.73858433
-0.178106476263 0.0380732991451  0.854162883691 3120.75864433
-0.173461916262 0.0353259032376  0.857677026923 3120.77852433
 -0.16634223645 0.0326882122096  0.859137963285 3120.79834433
-0.154277963885 0.0330004331603  0.857904283969 3120.81862433
-0.135022094032 0.0387639032846  0.853555636848 3120.83882433
-0.107179692674 0.0516136796658  0.846004784808 3120.85836433
-0.0707509513258  0.0719304083104   0.835565151031 3120.87762433
-0.0274491896992  0.0986717512291   0.822959963934 3120.89818433
0.0193081205069  0.129460735783  0.809263529881 3120.91846433
0.0647765831668  0.160917052976  0.795772823686 3120.93884433
0.103597731582 0.189171753386  0.78381955252 3120.95916433
0.130740974201 0.210478381699 0.774547629739 3120.97868433
0.142507598809 0.221826895269 0.768694368119 3120.99898433
0.137395111946 0.221472643754 0.766420565329 3121.01966433
0.116621965675 0.209301314629 0.767231475744 3121.04010433
0.0841578785063  0.186960518476  0.770016810312 3121.05984433
0.0461926872636  0.157707887823  0.773215480794 3121.07962433
0.0100945798081  0.125963448224  0.775083858829 3121.09882433
-0.0169676263512  0.0966100203761   0.774020413535 3121.11930433
-0.0294650220481  0.0741461874432   0.768881555492 3121.13976433
-0.0246952754391  0.0618426188268   0.759220217523 3121.15918433
-0.00342880996345   0.0610689501013    0.745394025653 3121.17828433
0.0301677900551 0.0709389371904  0.728521351264 3121.19866433
 0.069354984551 0.0883688275751  0.710301474703 3121.21906433
0.106238922585 0.108566644843 0.692746420283 3121.23850433
0.133487608567 0.125882408589 0.677886224457 3121.25832433
0.145966834925 0.134869479894 0.667503330754 3121.27858433
0.141926335269 0.131354129698 0.662930669107 3121.29850433
0.123461503412  0.11329804891 0.664922503982 3121.31878433
0.0961355301061 0.0812718530758  0.673588576948 3121.33906433
0.0678343397456 0.0384319016406   0.68837709234 3121.35868433
 0.0470992796001 -0.0100057121404   0.708099795087 3121.37792433
 0.0412998786258 -0.0576927191276    0.73100507047 3121.39834433
 0.055043212678 -0.098289183031  0.754912569669 3121.41812433
0.0891597063421 -0.126584700952  0.777418485116 3121.43848433
 0.140472583025 -0.139380049152  0.796164198667 3121.45830433
 0.202383013079 -0.135971758814  0.809138886315 3121.47868433
 0.266127411662 -0.118175662002  0.814967865729 3121.49818433
   0.32242744637 -0.0899228895979   0.813130762694 3121.51954433
  0.363186358735 -0.0565382443696   0.804060663159 3121.53924433
  0.382898987233 -0.0238507724331   0.789096127846 3121.55922433
  0.379528482792 0.00271210150591   0.770286745334 3121.57930433
 0.354732658202 0.0189208026332  0.750081676789 3121.59898433
 0.313460225399 0.0223382424341  0.730951589062 3121.61904433
 0.263048424542 0.0126502600824  0.715003032407 3121.63894433
   0.212019379403 -0.00830734020232     0.70364116115 3121.65884433
  0.168790220142 -0.0368372304447   0.697325980242 3121.67874433
   0.14049063906 -0.0679558815922   0.695453954643 3121.69882433
  0.132034789083 -0.0961750193419   0.696383565126 3121.71888433
 0.145536167268 -0.116361589945  0.697610059301 3121.73862433
 0.180096833295 -0.124528682696  0.696079580819 3121.75836433
 0.231955910032 -0.118428233927  0.688614948189 3121.77840433
  0.294951976092 -0.0978657291641    0.67240537039 3121.79846433
  0.361238528845 -0.0647166201205   0.645493481963 3121.81872433
  0.422184760528 -0.0226727520439   0.607180514425 3121.83862433
 0.469387460702 0.0232253996101  0.558270268329 3121.85874433
 0.495708466646 0.0672058843384  0.501089330822 3121.87862433
0.496235368995   0.1034669072 0.439255091117 3121.89850433
0.469046512255 0.126897591558 0.377209508142 3121.91864433
0.415654709156 0.133747965554  0.31958564453 3121.93850433
0.341019215068 0.122172160485 0.270514013188 3121.95838433
  0.25306095128 0.0925680216823  0.232996205454 3121.97846433
 0.161691750544 0.0476479650411  0.208467382264 3121.99834433
  0.0774628781237 -0.00779669679999    0.196636095722 3122.01860433
 0.0100295212387 -0.0674350470001   0.195635184514 3122.03842433
-0.0333092589686  -0.124189619946   0.202452592859 3122.05824433
-0.0487226981672  -0.171188213534   0.213550831763 3122.07838433
-0.0363871779605  -0.202742451299   0.225543217382 3122.09818433
-0.000328512917479    -0.215197731249      0.23578458404 3122.11910433
0.0524171022711 -0.207497130876  0.242757119257 3122.13904433
 0.113163299446 -0.181331081546  0.246182909493 3122.15898433
 0.173177692657 -0.140811764452  0.246860760616 3122.17904433
   0.22519473672 -0.0917104783027   0.246288632275 3122.19898433
  0.264521750659 -0.0404050706365   0.246177930288 3122.21888433
  0.289519518842 0.00723166357698   0.247980885965 3122.23878433
 0.301391209769 0.0467463869653  0.252535301586 3122.25868433
 0.303382436821 0.0756166172161  0.259889387075 3122.27892433
 0.299636122369 0.0932703245522  0.269317064981 3122.29882433
0.294019973506 0.100672739803 0.279486554161 3122.31878433
 0.289231462748 0.0996668321329  0.288714795253 3122.33874433
  0.28638942952 0.0923142335011  0.295233427744 3122.35876433
 0.285170878809 0.0804538902856  0.297407050921 3122.37870433
  0.28439037804 0.0655881108429  0.293873669435 3122.39866433
 0.282794906848 0.0490618278908  0.283609740604 3122.41858433
0.279795351918 0.032376316279 0.265947718599 3122.43850433
 0.275891150281 0.0174210763173  0.240585072767 3122.45840433
  0.272654264949 0.00643947169361   0.207617586964 3122.47858433
 0.272287298929 0.0016539439214  0.167608618479 3122.49850433
   0.27691106518 0.00462467546714   0.121677183082 3122.51846433
 0.287825467511 0.0155459209264 0.0715619012889 3122.53840433
 0.304996983439 0.0327466482109 0.0196057208092 3122.55834433
  0.326954074262  0.0526303553057 -0.0313853781794 3122.57838433
  0.351141408494  0.0701701815214 -0.0784279979925 3122.59834433
 0.374635823231 0.0799071817561 -0.118768136679 3122.61832433
 0.395007763756 0.0772356225221 -0.150343548521 3122.63828433
 0.411058783226  0.059651119132 -0.172205095774 3122.65824433
 0.423195180317 0.0276191490098 -0.184791409599 3122.67820433
 0.433301144649 -0.015200477141 -0.189968760369 3122.69818433
  0.444120904416 -0.0624846403088  -0.190790507262 3122.71908433
  0.45830545644 -0.106458785454 -0.190989402549 3122.73900433
 0.477383941587 -0.139544396746 -0.194278376222 3122.75892433
 0.500954010036  -0.15608308467 -0.203587108086 3122.77906433
 0.526340695846 -0.153745970527 -0.220390684168 3122.79898433
 0.548861007232  -0.13429127073 -0.244284923828 3122.81896433
 0.562679736982 -0.103461633303 -0.272927548307 3122.83892433
  0.562088261464 -0.0699906186901  -0.302398276697 3122.85888433
  0.542920154374 -0.0438806428872  -0.327944318202 3122.87884433
  0.503764857131 -0.0342843908389  -0.344987557994 3122.89882433
  0.446667845132 -0.0474314153711  -0.350196947741 3122.91880433
  0.377108694381 -0.0850631277295  -0.342393833304 3122.93876433
   0.3032058154 -0.143759770698 -0.323071779048 3122.95872433
 0.234274420019 -0.215369767123 -0.296377709433 3122.97870433
 0.179022847647 -0.288514911088 -0.268508151336 3122.99866433
 0.143774055512 -0.350893670176 -0.246603127374 3123.01864433
 0.131116288574 -0.391899484985 -0.237343440984 3123.03860433
 0.139309577595 -0.404967253693 -0.245544249117 3123.05856433
 0.162614813185 -0.389094125104 -0.273062478164 3123.07852433
 0.192503378045  -0.34915208107 -0.318284181197 3123.09850433
 0.219496242646 -0.294884998458 -0.376336520375 3123.11848433
 0.235224002085 -0.238797731445 -0.440004468816 3123.13844433
 0.234235743525 -0.193420274638  -0.50116525815 3123.15840433
 0.215135597307 -0.168592533153 -0.552426998744 3123.17836433
 0.180783191994 -0.169416833363 -0.588605029006 3123.19834433
 0.137520638384 -0.195359721434 -0.607705426462 3123.21830433
0.0936259768003 -0.240691896522 -0.611202561771 3123.23824433
0.0573784257128 -0.296113051596 -0.603567944316 3123.25820433
0.0352054080152 -0.351110910601 -0.591186730669 3123.27822433
0.0303445707135 -0.396433057472 -0.580937995967 3123.29818433
0.0423086061143 -0.426051723823 -0.578777736374 3123.31912433
0.0672282065829 -0.438170822932 -0.588635219253 3123.33908433
0.0989274459249 -0.435108027266 -0.611827270395 3123.35904433
 0.130415698533 -0.422196913664 -0.647047802201 3123.37900433
 0.155404587335 -0.406103031425 -0.690847669305 3123.39898433
 0.169492462314 -0.393063832772  -0.73842301571 3123.41886433
 0.170784508627 -0.387521570801 -0.784499714666 3123.43872433
 0.159889289703 -0.391447784176 -0.824133932195 3123.45860433
 0.139397384059 -0.404423598286 -0.853320636254 3123.47888433
 0.113058188661 -0.424319884122 -0.869380392552 3123.49882433
0.0849029852281 -0.448278398478 -0.871151642082 3123.51866433
0.0585195695386 -0.473659634283 -0.859036586649 3123.53850433
 0.036592402407 -0.498689016785  -0.83493691974 3123.55832433
0.0207199099291 -0.522665777727 -0.802087541473 3123.57816433
0.0114424658607 -0.545750018246 -0.764773483759 3123.59866433
0.00838212418855  -0.568466754664  -0.727913847609 3123.61882433
 0.010410007507 -0.591129897971  -0.69652069304 3123.63874433
0.0158029717696 -0.613385501169 -0.675080932089 3123.65866433
0.0224015671006 -0.634015323804 -0.666947235293 3123.67858433
0.0278117747753 -0.651054904089  -0.67384247399 3123.69850433
 0.029689930607 -0.662191893303 -0.695573182737 3123.71718433
 0.026115221647 -0.665339605711 -0.730014511388 3123.73594433
0.0160021220439 -0.659237548487 -0.773383196098 3123.75418433
-0.000541737268246    -0.643919596682    -0.820767808424 3123.77242433
-0.0220274236709  -0.620913763682  -0.866844521008 3123.79066433
-0.0456636351543  -0.593094434368  -0.906675371714 3123.82220433
-0.0677449183628  -0.564190661992   -0.93646668973 3123.84240433
-0.0843130087009  -0.538045117672  -0.954161067262 3123.86196433
-0.0919757735676  -0.517792822952  -0.959750989704 3123.88150433
-0.0887112470266  -0.505163084281  -0.955238800636 3123.90106432
-0.0744673990821  -0.500088573119  -0.944225149145 3123.92088433
-0.0513991206237  -0.500734623018  -0.931179620786 3123.94094433
-0.0236576008309  -0.503957093794  -0.920519348373 3123.96128433
0.00325267147219  -0.506085877954  -0.915675520625 3123.98108433
 0.023432169078 -0.503843202066 -0.918345513762 3124.00090433
 0.031665289648 -0.495166456573 -0.928099072504 3124.02056433
 0.024392956025 -0.479727383583 -0.942433434434 3124.04034433
0.000372949702685   -0.459018315626   -0.957272034102 3124.06040433
-0.0391084156996   -0.43598918977  -0.967801086481 3124.08108433
-0.0905092338542    -0.4143332948  -0.969464261011 3124.10074433
-0.148718875694 -0.397603780496 -0.958905151332 3124.12048433
-0.208001150115 -0.388377076467 -0.934664514667 3124.14018433
-0.262989278015 -0.387658930483 -0.897496461382 3124.15988433
-0.309530987798 -0.394662505156 -0.850249478398 3124.18040433
-0.345230666068 -0.406994124141 -0.797346268655 3124.20058433
-0.369614799639 -0.421184620372 -0.743973733811 3124.22032433
-0.383935381645 -0.433427048961 -0.695147033073 3124.24008433
-0.390701425721 -0.440343049043 -0.654830488062 3124.25992433
-0.393073774491 -0.439607207938 -0.625280845368 3124.28068433
-0.394264322108 -0.430305425779 -0.606730159918 3124.30042433
-0.397050145195  -0.41297404611 -0.597457444205 3124.32020433
-0.403459054923 -0.389342175239 -0.594224147556 3124.33996433
-0.414625295294 -0.361862340252 -0.592981863509 3124.35972433
 -0.43077161168 -0.333151511833 -0.589712318781 3124.37960433
-0.451258813853 -0.305469628771 -0.581237422879 3124.40026433
-0.474657749765  -0.28033821055 -0.565844957962 3124.42024433
-0.498832333674 -0.258356913781  -0.54361256936 3124.44020433
-0.521059838899 -0.239224928308 -0.516372690552 3124.46016433
 -0.53823807677 -0.221930755579 -0.487332472476 3124.48012433
-0.547224642012 -0.205047494605 -0.460431317045 3124.50010433
-0.545317491714 -0.187063787324  -0.43956988908 3124.52040433
-0.530828083093 -0.166689199963 -0.427867235571 3124.54028433
-0.503638040585 -0.143089563956  -0.42709145603 3124.56018433
-0.465591010696 -0.116025320486  -0.43736657228 3124.58006433
 -0.420570854352 -0.0858802714513  -0.457194028919 3124.59994433
  -0.37416269869 -0.0535801148572   -0.48375731747 3124.61988433
 -0.332879532451 -0.0204136158097  -0.513419548059 3124.63982433
 -0.30304739717 0.0122127744461 -0.542290237376 3124.65974433
-0.289550248286 0.0430355284199 -0.566736626636 3124.67970433
  -0.2947090443 0.0711434150035 -0.583745898545 3124.69978433
-0.317579983446 0.0960699607434 -0.591098593179 3124.71976433
 -0.35389081959  0.117727256763 -0.587373894917 3124.73970433
-0.396701527351  0.136185166503 -0.571854596175 3124.75966433
-0.437706941738   0.15135637389 -0.544417325378 3124.77966433
-0.468936047925  0.162695779818 -0.505476490537 3124.79962433
-0.484486170372  0.169041570053 -0.456006460408 3124.81956433
-0.481891850815  0.168699979104 -0.397614552973 3124.83948433
