 0.182391101898 0.0240814303277 0.0543659633386 1589936323.63
 0.139613963319 0.0170470648093 0.0409899909248 1589936323.65
  0.097904319342 0.00825547446249  0.0278778037766 1589936323.67
  0.0597147054958 -0.00174948830044   0.0157152018321 1589936323.7
 0.0266961884294 -0.0123337208517  0.0048945885669 1589936323.73
-0.000449063510719   -0.0228051856411  -0.00451024776758 1589936323.75
-0.0219259598979 -0.0324493765382 -0.0127011049098 1589936323.77
-0.0386472562568  -0.040578178276 -0.0200610960924 1589936323.8
-0.0519371471722 -0.0465962977242 -0.0270366440877 1589936323.83
-0.0632094625038 -0.0500788967125 -0.0340261647051 1589936323.85
-0.0736860292111 -0.0508437748871 -0.0413007544264 1589936323.87
-0.0842007138785 -0.0489961321551 -0.0489707823845 1589936323.9
-0.0951086723087 -0.0449262652052 -0.0569982995295 1589936323.93
 -0.106296795802 -0.0392503531563 -0.0652428671383 1589936323.95
 -0.117275491668 -0.0326988508124 -0.0735208455966 1589936323.97
 -0.127324853148 -0.0259713514546  -0.081656723059 1589936324
 -0.135668055988 -0.0195867456942 -0.0895096203379 1589936324.03
 -0.141647993633 -0.0137606540261  -0.096967353264 1589936324.05
 -0.144886257443 -0.0083383750991  -0.103911944016 1589936324.07
   -0.14540497405 -0.00280245868335   -0.110171272834 1589936324.1
 -0.143692767582 0.00363858905916  -0.115478696666 1589936324.13
-0.140698715601 0.0118883026742 -0.119463344848 1589936324.15
-0.137744774047 0.0227492921481 -0.121686942074 1589936324.17
-0.136358653672 0.0366944010543 -0.121729273229 1589936324.2
-0.138044745519 0.0536654982583   -0.1193075357 1589936324.23
-0.144027467395  0.072944537963 -0.114400156631 1589936324.25
-0.155014498802 0.0931330208887 -0.107337924886 1589936324.27
 -0.171031622794   0.112257697217 -0.0988271915397 1589936324.3
 -0.191372772927   0.127995394701 -0.0898816801683 1589936324.33
 -0.214687904443   0.137984279947 -0.0816590078593 1589936324.35
-0.239200848584  0.140169516074 -0.075221308512 1589936324.37
 -0.263016621951    0.13312318022 -0.0712613390764 1589936324.4
 -0.284452210818   0.116283112229 -0.0698511139464 1589936324.43
 -0.302315080391   0.090071385168 -0.0702750998772 1589936324.45
 -0.316063911604  0.0558760557945 -0.0710013733854 1589936324.47
 -0.325814983095  0.0159041016002 -0.0698215183537 1589936324.5
 -0.332198069715 -0.0270665021398  -0.064156439577 1589936324.53
  -0.33610618732 -0.0699954488733 -0.0514868224356 1589936324.55
 -0.338411201808  -0.109906134994 -0.0298318922659 1589936324.57
 -0.339722850962  -0.144189805872 0.00182252436828 1589936324.6
-0.340250263349 -0.170856858897 0.0432477501717 1589936324.63
-0.339789585485 -0.188713490696 0.0929260563972 1589936324.65
 -0.33782187578 -0.197450035968  0.148266677758 1589936324.67
-0.333675406126 -0.197634665355  0.206055838467 1589936324.7
-0.326694377045 -0.190613466542  0.263052356951 1589936324.73
-0.316363130421 -0.178325627798  0.316596877207 1589936324.75
-0.302356731224 -0.163050301604  0.365090010987 1589936324.77
-0.284517600062  -0.14710973249  0.408219400619 1589936324.8
-0.262785122359 -0.132561144712  0.446874241507 1589936324.83
-0.237123057643 -0.120916317294  0.482764201067 1589936324.85
-0.207492617056 -0.112930312514  0.517837193331 1589936324.88
-0.173905236932 -0.108497113377  0.553645175573 1589936324.9
-0.136560738384 -0.106678529786  0.590822487681 1589936324.93
-0.096041054253 -0.105873627262  0.628811933956 1589936324.95
-0.053498393076 -0.104111204767  0.665908042502 1589936324.98
-0.0107616762694 -0.0994221055586    0.69960377499 1589936325
 0.0297057417851 -0.0902275811785   0.727149831717 1589936325.03
 0.0650305910904 -0.0756703834106   0.746185309072 1589936325.05
 0.0923204053637 -0.0558205404744   0.755287054898 1589936325.08
  0.109152834701 -0.0317086326513   0.754313126278 1589936325.1
   0.114058337147 -0.00517277874289    0.744472490029 1589936325.13
 0.106880520109 0.0214554148246  0.728120895849 1589936325.15
0.0889202486415 0.0457652578285  0.708343495832 1589936325.18
0.0628183454913   0.06569804184  0.688424495305 1589936325.2
0.0321927853224 0.0799062912446   0.67131618646 1589936325.23
0.00110211110536  0.0879676499143   0.659205325057 1589936325.25
-0.0265572563267  0.0904114945796   0.653241924639 1589936325.28
-0.0476040501894  0.0885576245197   0.653455514808 1589936325.3
-0.059979227745 0.0842073101501  0.658847237267 1589936325.33
-0.0629494506481  0.0792574525304   0.667619672253 1589936325.35
-0.0570941951977  0.0753215384892   0.677492524227 1589936325.38
-0.0441027683661   0.073434415177   0.686050068662 1589936325.4
-0.0264339287805  0.0738944752233   0.691071997796 1589936325.43
-0.00690279543173   0.0762632085848    0.690808991976 1589936325.45
0.0117411592446 0.0795071693922  0.684175299539 1589936325.48
0.0271907590622 0.0822401249142  0.670841874227 1589936325.5
0.0378707429682 0.0830091348811  0.651225136021 1589936325.53
0.0431106500165 0.0805682152323  0.626378114625 1589936325.55
0.0431827259879 0.0740940175947  0.597802065837 1589936325.58
 0.039199636512 0.0633151974931  0.567206441662 1589936325.6
0.0328824497964 0.0485462789149  0.536251691468 1589936325.63
0.0262272056331 0.0306335891768  0.506311323576 1589936325.65
0.0211170291521 0.0108323399463  0.478286420486 1589936325.68
  0.0189430796153 -0.00936044694862    0.452497823901 1589936325.7
 0.0203060398852 -0.0283915531321    0.42866959488 1589936325.73
 0.0248643041023 -0.0448322124918   0.406003693488 1589936325.75
 0.0313728391336 -0.0575339718538   0.383332073069 1589936325.78
0.0379206023305 -0.065744149345  0.359320533386 1589936325.8
 0.0423317048341 -0.0691697110445   0.332690381142 1589936325.83
 0.0426560115485 -0.0679835805316    0.30242056219 1589936325.85
 0.0376483924173 -0.0627740209683   0.267895619562 1589936325.88
 0.0271296709381 -0.0544456110389   0.228974197431 1589936325.9
 0.0121394379598 -0.0440881034092   0.185968191108 1589936325.93
-0.00517034295774   -0.032834970017    0.139541635913 1589936325.95
  -0.02189774124 -0.0217346532058  0.0905569161726 1589936325.98
-0.0349469151658 -0.0116535323779  0.0399086789982 1589936326
 -0.0416655089955 -0.00322134658933  -0.0116117389853 1589936326.03
-0.0404245364853 0.00318012066965  -0.063388533702 1589936326.05
-0.0310081516206 0.00739296572202  -0.114977560142 1589936326.08
-0.0147204583064 0.00943703554775  -0.166037567743 1589936326.1
0.00581949204875 0.00945672839937  -0.216227569265 1589936326.13
 0.0271521040655 0.00767394239404  -0.265110555084 1589936326.15
 0.0456192863506 0.00435624264086  -0.312099838389 1589936326.18
   0.0580395987853 -0.000195938774395    -0.356469474694 1589936326.2
 0.0622815027949 -0.0056445117157  -0.397429918254 1589936326.23
 0.0576284406396 -0.0115973002484  -0.434250754741 1589936326.25
 0.0448778191871 -0.0175891965693  -0.466399288431 1589936326.28
0.0261710779345 -0.023071761025 -0.493659932204 1589936326.3
0.00460106299701 -0.0274219850307  -0.516204827039 1589936326.33
-0.0163231476665 -0.0299788636345  -0.534598432916 1589936326.35
-0.0332581283917 -0.0301120294802  -0.549734204184 1589936326.38
-0.0435595330749 -0.0273195249559  -0.562716077913 1589936326.4
-0.0456850762962 -0.0213422726031  -0.574708137433 1589936326.43
-0.0394073463471 -0.0122730020022  -0.586780248869 1589936326.45
  -0.0258059023854 -0.000630636720025    -0.599775286694 1589936326.48
-0.00704248233314   0.0126290939919   -0.614216559043 1589936326.5
0.0140403613373 0.0261874723454 -0.630265265047 1589936326.53
0.0344242947166 0.0385244043895 -0.647729801156 1589936326.55
0.0514303835849 0.0481485924256  -0.66612246724 1589936326.58
0.0631488702199 0.0538553546454 -0.684754303707 1589936326.6
0.0687064139237 0.0549575061493 -0.702854703737 1589936326.63
0.0683288176228 0.0514344023333 -0.719698780344 1589936326.65
0.0632009097689 0.0439589571263 -0.734722818799 1589936326.68
0.0551665095344 0.0337891718833 -0.747607906858 1589936326.7
0.0463398875096 0.0225421421363 -0.758315451482 1589936326.73
0.0387098738812 0.0118954980306 -0.767066344161 1589936326.75
 0.0338091611707 0.00327658400051  -0.774267215274 1589936326.78
  0.0324996370258 -0.00239924174886   -0.780400182354 1589936326.8
  0.0348969074452 -0.00489137108798   -0.785903165159 1589936326.83
  0.0404304659766 -0.00466824410435   -0.791072360787 1589936326.85
  0.0480151928949 -0.00280805771478   -0.796014264418 1589936326.88
  0.0562964134764 -0.00078477236543   -0.800661676987 1589936326.9
   0.0639230420363 -0.000178153546574    -0.804849400339 1589936326.93
  0.0698001343482 -0.00235964324767   -0.808426057561 1589936326.95
  0.0732747136405 -0.00821045656493   -0.811364853361 1589936326.98
 0.0742192416115 -0.0179235908558  -0.813833123383 1589936327
 0.0729959396473 -0.0309278288027  -0.816190175523 1589936327.03
 0.0703099497823 -0.0459513080744  -0.818903217913 1589936327.05
 0.0669853468214 -0.0612179409099  -0.822396592014 1589936327.07
0.0637185015175 -0.074745568802 -0.826872552215 1589936327.1
0.0608710238141 -0.084694419052 -0.832155188717 1589936327.13
 0.0583555851898 -0.0897026114335  -0.837608278505 1589936327.15
 0.0556445286447 -0.0891454449479  -0.842162644289 1589936327.17
 0.0519003822174 -0.0832676536127  -0.844462773877 1589936327.2
 0.0461976301709 -0.0731605737166  -0.843112318713 1589936327.23
 0.0377836965107 -0.0605850478629  -0.836970962819 1589936327.25
 0.0263189033386 -0.0476706072994  -0.825437856304 1589936327.27
  0.012041189006 -0.0365461760369  -0.808654003344 1589936327.3
-0.00418140645979  -0.0289717704303   -0.787568844475 1589936327.33
-0.0209241130607 -0.0260407869665  -0.763842234612 1589936327.35
-0.0363936665075 -0.0280079067767  -0.739586692863 1589936327.37
-0.0486988653542  -0.034271329024  -0.716989176666 1589936327.4
-0.0561563462148 -0.0435058772387  -0.697879488813 1589936327.43
-0.0575794532769 -0.0539130007825  -0.683327865753 1589936327.45
-0.0525026235331 -0.0635320275613  -0.673353953357 1589936327.47
-0.0413056249787 -0.0705492258709  -0.666812834516 1589936327.5
-0.0252180400591 -0.0735486775209  -0.661493424606 1589936327.53
-0.0062011678349 -0.0716688292118   -0.65442535615 1589936327.55
 0.0132806231751 -0.0646545477002    -0.6423495201 1589936327.57
 0.0305747014179 -0.0528187426333  -0.622272905131 1589936327.6
 0.0432053839034 -0.0369435581177  -0.592007909722 1589936327.63
 0.0492422010876 -0.0181556366083  -0.550595059651 1589936327.65
 0.0476138231911 0.00219599473238   -0.49852715238 1589936327.67
0.0383068900757 0.0226432620898  -0.43772873301 1589936327.7
0.0223983315185   0.04168128622 -0.371290152255 1589936327.72
0.00189536983546  0.0578382260781  -0.303001078155 1589936327.75
-0.0206026745361  0.0697468773996  -0.236765333709 1589936327.77
-0.0423612748325   0.076230810929  -0.176000425837 1589936327.8
-0.060990145123  0.076409980652 -0.123127358831 1589936327.82
-0.0748355818562  0.0698186214687  -0.079239090984 1589936327.85
-0.0831938003415  0.0565158864541 -0.0440024032625 1589936327.87
-0.0862999731414  0.0371617352591  -0.015803826653 1589936327.9
-0.0851099029873    0.01303066987 0.00789636748847 1589936327.92
-0.0809492087711 -0.0140551612489  0.0300777710382 1589936327.95
-0.0751391430524 -0.0418767298876  0.0536400143405 1589936327.97
-0.0687072977767  -0.068039128168  0.0809490808261 1589936328
-0.0622566539506 -0.0902351328257   0.113526775174 1589936328.02
-0.056010590752 -0.106515039595  0.151921423877 1589936328.05
-0.049993702683  -0.11552395745  0.195754429697 1589936328.07
-0.0442667858708  -0.116671195696   0.243901609866 1589936328.1
-0.0391208977747  -0.110205220145    0.29474849673 1589936328.12
-0.0351526294934 -0.0971806982954   0.346457064531 1589936328.15
-0.0331842259062 -0.0793195636238   0.397194478573 1589936328.17
-0.0340445672441 -0.0587837264235   0.445296101538 1589936328.2
-0.0382740354973 -0.0378909230118   0.489357958162 1589936328.23
-0.0458439606692 -0.0188150849682   0.528272138369 1589936328.25
 -0.0559822698408 -0.00331662168572    0.561228569441 1589936328.27
-0.0671719103593 0.00745516050802   0.587707178602 1589936328.3
-0.0773452103731  0.0130561510661   0.607477082968 1589936328.33
-0.0842470559657  0.0137245897476   0.620607628938 1589936328.35
-0.0858947457413  0.0102500695002    0.62748465221 1589936328.37
 -0.081032947066 0.00376483911248   0.628818384036 1589936328.4
 -0.0694752320503 -0.00449672166881    0.625628771681 1589936328.43
-0.0522417790872 -0.0134196103075   0.619198867931 1589936328.45
-0.0314435860117 -0.0221666985165   0.610995075203 1589936328.47
-0.00991933569632   -0.030247213539    0.602561429202 1589936328.5
0.00931024686406  -0.037490891353    0.59540087516 1589936328.53
 0.0236584369753 -0.0439456934221   0.590857930011 1589936328.55
 0.0315237709372 -0.0497328987661   0.590014609963 1589936328.57
 0.0326497539102 -0.0548998559639   0.593607039998 1589936328.6
 0.0282054856231 -0.0593077551903    0.60196606936 1589936328.63
 0.0205610489133 -0.0625815779435    0.61498316795 1589936328.65
 0.012800383774 -0.064134740583  0.632103459417 1589936328.68
0.00807399504815 -0.0632647803134   0.652350070402 1589936328.7
0.00892991175959 -0.0593014691653   0.674385782524 1589936328.73
0.0167657866002 -0.051777353617  0.696616826634 1589936328.75
  0.031517672795 -0.0405848726292    0.71733842892 1589936328.78
 0.0516486828845 -0.0260852861881    0.73491307613 1589936328.8
 0.0744354044617 -0.0091428481317   0.747962491132 1589936328.83
 0.0964863729666 0.00892848012743   0.755546020732 1589936328.85
 0.114379518663 0.0265017570697  0.757294766955 1589936328.88
 0.12528489611 0.041836993629 0.753474385351 1589936328.9
 0.127449179795 0.0533117192639  0.744959792964 1589936328.93
 0.120455837254 0.0596440474701  0.733119911367 1589936328.95
0.105229197392 0.060072672256 0.719627051187 1589936328.98
0.0838070709766 0.0544677313083  0.706220364526 1589936329
0.0589505459451 0.0433595416264  0.694462535105 1589936329.03
0.0336816749861 0.0278851587941  0.685530834825 1589936329.05
 0.0108383608785 0.00966330576969   0.680077087454 1589936329.08
-0.00728424400653 -0.00938408741381    0.678177429111 1589936329.1
-0.0191665248469 -0.0272406087843   0.679375085024 1589936329.13
-0.0241626553072 -0.0420092439774   0.682801583729 1589936329.15
-0.0224789642702 -0.0521073361344   0.687347974088 1589936329.18
-0.0150596898146 -0.0564223773944   0.691850765285 1589936329.2
-0.00341040138984  -0.0544143833471    0.695258375216 1589936329.23
 0.0106135629902 -0.0461578722664   0.696751568921 1589936329.25
  0.025031451877 -0.0323237507283   0.695803225666 1589936329.28
 0.0379564859074 -0.0141073252417   0.692175949964 1589936329.3
 0.0477944260036 0.00688751902992   0.685867736246 1589936329.33
0.0534051890953 0.0287959266383  0.677023971284 1589936329.35
0.0542112492378 0.0496585307166  0.665837705288 1589936329.38
0.0502389959052 0.0675936583137  0.652459704671 1589936329.4
0.0420850158961 0.0809625833866  0.636936014301 1589936329.43
0.0308081402078 0.0885158049873  0.619184216875 1589936329.45
0.0177594701932 0.0895090223953  0.599011104643 1589936329.48
0.00437477325902   0.083778431827   0.576165376461 1589936329.5
-0.00803681771827   0.0717667774324    0.550410911825 1589936329.53
-0.0184706313992   0.054494724097   0.521600990344 1589936329.55
-0.0263386231713  0.0334767474873   0.489733172927 1589936329.58
-0.0314965984074  0.0105865943489    0.45496913689 1589936329.6
-0.0341857425877 -0.0121165672961   0.417612631894 1589936329.63
-0.0349072317726 -0.0325854503181    0.37804958716 1589936329.65
-0.0342631586615 -0.0489870445768   0.336664513751 1589936329.68
-0.0328019388033 -0.0598910681807   0.293754302641 1589936329.7
-0.0309012415447 -0.0644256679441   0.249462616138 1589936329.73
-0.0287090605213 -0.0623825428004   0.203754655265 1589936329.75
-0.0261478997007 -0.0542560199552   0.156443793746 1589936329.78
-0.0229728788105 -0.0412050541764   0.107270064767 1589936329.8
-0.0188661309379 -0.0249341469692  0.0560179475234 1589936329.83
 -0.0135485281086 -0.00749903226952  0.00264975489577 1589936329.85
-0.00689252881887  0.00894495353345  -0.0525762494235 1589936329.88
0.000978102955837   0.0224216216272   -0.109034742931 1589936329.9
0.00961736255765  0.0314001825084  -0.165734196606 1589936329.93
0.0182336880391  0.035005912613 -0.221400579277 1589936329.95
0.0257337568927  0.033136909144 -0.274636007575 1589936329.98
0.0308466232926 0.0264622731888 -0.324125328146 1589936330
0.0323261771474 0.0162978856592 -0.368849377486 1589936330.03
0.0292078401116 0.0043796037962  -0.40825854386 1589936330.05
  0.0210728641458 -0.00742550858117   -0.442366233249 1589936330.08
0.00825864572567 -0.0174166647117   -0.47173800454 1589936330.1
-0.00804719216272  -0.0243110939593   -0.497374792779 1589936330.13
-0.0258743847893 -0.0274061277012  -0.520512200264 1589936330.15
-0.0427121281453 -0.0266271281693  -0.542376491874 1589936330.18
-0.0558974670386 -0.0224599534026  -0.563947382537 1589936330.2
-0.0630833616016 -0.0157885166378  -0.585776109331 1589936330.23
 -0.0626950704808 -0.00767481753547   -0.607895293455 1589936330.25
-0.0542790667045 0.00087182147878  -0.629837467605 1589936330.28
-0.0386659885939 0.00908932510906   -0.65075610891 1589936330.3
-0.0179047126034  0.0165835067104  -0.669621474647 1589936330.33
0.00502914056143  0.0233541426957   -0.68544814691 1589936330.35
0.0267006705338 0.0297271013463 -0.697505526327 1589936330.38
 0.043773753925 0.0362138359268 -0.705468164467 1589936330.4
0.0535567117389 0.0433349028594 -0.709478589562 1589936330.43
0.0544367304191 0.0514504356011 -0.710117062366 1589936330.45
 0.046128865054 0.0606362106249 -0.708294515696 1589936330.48
0.0297043187591 0.0706305854754   -0.7051007515 1589936330.5
0.00740552511634  0.0808591481314  -0.701645691026 1589936330.53
-0.0177077805317  0.0905255140041  -0.698926346138 1589936330.55
-0.0422134652187  0.0987432080398  -0.697739001947 1589936330.57
-0.062806370444  0.104678178884 -0.698639955685 1589936330.6
-0.0767317928817   0.107674506377  -0.701944369129 1589936330.63
-0.0821195220635    0.10734459642  -0.707745206696 1589936330.65
-0.0781860351978   0.103615530583  -0.715934302486 1589936330.67
-0.0652921314766  0.0967318555981   -0.72621421628 1589936330.7
-0.0448588468134  0.0872203324504  -0.738099591395 1589936330.73
-0.0191564270944  0.0758241880396  -0.750916343847 1589936330.75
0.00900856896399  0.0634147664509  -0.763812870958 1589936330.77
0.0366723255542 0.0508891707225  -0.77579759402 1589936330.8
0.0611117923132 0.0390646466015 -0.785811259259 1589936330.83
0.0802048617471 0.0285834585094 -0.792832049721 1589936330.85
0.0926937222277 0.0198438483724 -0.795999775348 1589936330.87
0.0983028499271 0.0129711659089 -0.794735942393 1589936330.9
 0.0976872647444 0.00783710271879  -0.788832702693 1589936330.93
 0.0922206221387 0.00412444904823  -0.778487578908 1589936330.95
 0.0836685608236 0.00142227891568  -0.764272249422 1589936330.97
   0.0738203966197 -0.000673921373739    -0.747039533863 1589936331
  0.0641624286132 -0.00248646497556   -0.727787930288 1589936331.03
 0.0556643800229 -0.0042276819476  -0.707512575894 1589936331.05
  0.0487197399045 -0.00602911682804   -0.687072556818 1589936331.07
  0.0432397843012 -0.00801679579892   -0.667097358312 1589936331.1
  0.038860887658 -0.0104029839166  -0.647942708284 1589936331.13
  0.035195809685 -0.0135541438107  -0.629692291856 1589936331.15
 0.0320497144369 -0.0179965837198  -0.612190986879 1589936331.17
 0.0295336708767 -0.0243362233461  -0.595090205957 1589936331.2
 0.0280390127813 -0.0330938006069  -0.577887333106 1589936331.23
 0.0280767119199 -0.0444856218509  -0.559947977355 1589936331.25
 0.0300260510524 -0.0582049471728  -0.540509632281 1589936331.27
 0.0338661647199 -0.0732724033784  -0.518675705469 1589936331.3
 0.0389748099481 -0.0880193521503  -0.493417189254 1589936331.32
0.0440674512373 -0.100244240758 -0.463603366295 1589936331.35
0.0473179899802 -0.107543026492 -0.428081385685 1589936331.37
0.0466572403629  -0.10777028939 -0.385816430008 1589936331.4
 0.0401977347612 -0.0995488231572  -0.336089606567 1589936331.42
 0.0266962612343 -0.0827217446687  -0.278731477006 1589936331.45
0.00594908062735 -0.0586385682271  -0.214349370263 1589936331.47
-0.0209762193507 -0.0301877689617   -0.14449208465 1589936331.5
 -0.0517362656604 -0.00153155279848  -0.0716922501164 1589936331.52
 -0.0829524109425   0.0224426975328 0.000661270877619 1589936331.55
-0.110664345216 0.0368769919186 0.0686403249542 1589936331.57
-0.130923231211 0.0377734803918  0.128262714399 1589936331.6
-0.140424124947 0.0227431489288  0.176080526251 1589936331.62
  -0.137068902357 -0.00848080695069    0.209769580338 1589936331.65
 -0.120360250836 -0.0538786122359   0.228599958119 1589936331.67
-0.0915525442391  -0.109375694837   0.233676144046 1589936331.7
-0.0535237012206  -0.169438872969   0.227872406178 1589936331.72
-0.0103789589182  -0.227931364819   0.215448921575 1589936331.75
0.0331541576982 -0.279068455043  0.201403901676 1589936331.77
0.0724398718825 -0.318296029972  0.190679166314 1589936331.8
 0.103634264379 -0.342932170049  0.187373989037 1589936331.83
 0.124249390578 -0.352463581376  0.194123105726 1589936331.85
 0.133485158621 -0.348461726062  0.211758160491 1589936331.87
 0.132277851844 -0.334160630602  0.239307110204 1589936331.9
 0.123067911662 -0.313801279211  0.274310625269 1589936331.93
 0.109339566618 -0.291882291534  0.313368069653 1589936331.95
 0.095020800754 -0.272457709169  0.352784499864 1589936331.97
0.0838483133864 -0.258594319449  0.389182613133 1589936332
0.0787982663133 -0.252054390644   0.41996824942 1589936332.03
0.0816639911847   -0.2532187648  0.443585085582 1589936332.05
0.0928328742673 -0.261221650245  0.459549111091 1589936332.07
 0.111282317661 -0.274239239348  0.468301704629 1589936332.1
 0.134783220602 -0.289861457805  0.470950645982 1589936332.13
 0.160271887192 -0.305477847027  0.468976446985 1589936332.15
  0.18433043371 -0.318620869022  0.463969063107 1589936332.17
0.203703937751 -0.32722829427 0.457434549303 1589936332.2
0.215780738551 -0.32980636562 0.450681808149 1589936332.23
 0.218969950068 -0.325493330562  0.444774861913 1589936332.25
 0.212925737434 -0.314036315634  0.440522172421 1589936332.27
 0.198588837951 -0.295702753581  0.438473678222 1589936332.3
 0.178039607712 -0.271151225104  0.438906351406 1589936332.33
 0.154181522998 -0.241286574133  0.441794989225 1589936332.35
 0.130297949922 -0.207121469833  0.446780484425 1589936332.37
 0.109545665974 -0.169662110462  0.453157655856 1589936332.4
 0.09446217744 -0.12983004687 0.459905565855 1589936332.43
0.0865663739259 -0.088425351336  0.465774729069 1589936332.45
 0.0861215370253 -0.0461288488458   0.469430497929 1589936332.47
  0.0921068026637 -0.00353354601003    0.469634902698 1589936332.5
 0.102410325689 0.0388111271042    0.4654352074 1589936332.53
 0.114218517832 0.0803623517409  0.456320482137 1589936332.55
0.124536682465 0.120572929166 0.442310300205 1589936332.57
0.130745072329 0.158917043155 0.423952499892 1589936332.6
0.131079401468 0.194950570626 0.402226763013 1589936332.63
0.124932672351 0.228390220555 0.378372202777 1589936332.65
0.112907711759 0.259186887592 0.353674740499 1589936332.67
0.0966027007838  0.287567375118  0.329259538116 1589936332.7
0.0781745178751  0.314025305069  0.305932492374 1589936332.73
0.0597814536126  0.339254609111  0.284102415687 1589936332.75
0.0430415185617  0.364033761744  0.263794837126 1589936332.77
0.0286434001854  0.389081238888  0.244744938025 1589936332.8
0.0162115127521  0.414908952767  0.226537429333 1589936332.83
0.00446254945051   0.441699688005   0.208750496487 1589936332.85
-0.00838492945578    0.469228384098    0.191062240047 1589936332.87
-0.024053517698  0.496838105454  0.173291080752 1589936332.9
-0.0436480029519   0.523472408968   0.155362617107 1589936332.93
-0.0672408704287   0.547758738968    0.13721818345 1589936332.95
-0.0937107382632   0.568133351687   0.118698309051 1589936332.97
-0.120876097743  0.582996322458 0.0994425662805 1589936333
-0.145891169855  0.590883769482 0.0788438441309 1589936333.03
-0.165806448436   0.59064241067 0.0560810044836 1589936333.05
-0.178160379168  0.581589021688 0.0302331790163 1589936333.07
  -0.181468459519    0.563635286176 0.000457251767287 1589936333.1
 -0.175508666583   0.537358408031 -0.0338072830218 1589936333.13
 -0.161355405134    0.50400123097 -0.0726510866132 1589936333.15
-0.141172246737  0.465393335194 -0.115569573593 1589936333.17
 -0.11782239786  0.423796005324 -0.161432984258 1589936333.2
-0.0943857020702   0.381686853166   -0.20856733897 1589936333.23
-0.0736783300103   0.341511236049  -0.254939404877 1589936333.25
-0.0578579816138   0.305434697105  -0.298416988098 1589936333.27
-0.0481700224205   0.275131657221  -0.337059182251 1589936333.3
-0.0448575939198   0.251640005119  -0.369383673981 1589936333.33
-0.047229537133  0.235300029435 -0.394562069795 1589936333.35
-0.0538585834999   0.225781555414  -0.412508921814 1589936333.37
-0.0628694442019   0.222188188111  -0.423852222943 1589936333.4
-0.0722703691329   0.223215386241  -0.429797215642 1589936333.43
-0.080279985584  0.227332351953 -0.431915649702 1589936333.45
-0.0856024348919   0.232957782657  -0.431904424381 1589936333.47
-0.0876088251088   0.238605923778  -0.431358315358 1589936333.5
-0.0863940622605   0.242989932643  -0.431591700056 1589936333.53
-0.0826966115509   0.245081181578  -0.433527522644 1589936333.55
-0.0776931472633   0.244132612338   -0.43765385122 1589936333.57
-0.0727056902302   0.239679402351  -0.444034747933 1589936333.6
-0.0688793982262   0.231530524261  -0.452356137278 1589936333.63
-0.0668988602914   0.219761209751    -0.4619892897 1589936333.65
-0.0668059717755   0.204710153324  -0.472061954958 1589936333.67
-0.0679629184178   0.186977692782  -0.481535644852 1589936333.7
-0.0691727957235    0.16741391535  -0.489292553627 1589936333.73
-0.0689345275924   0.147081245433  -0.494234764824 1589936333.75
-0.0657766055658   0.127176854741  -0.495392645566 1589936333.77
-0.0585941826347    0.10890681169  -0.492032015179 1589936333.8
-0.0469121096932  0.0933150986383  -0.483744657595 1589936333.83
-0.0310139234392  0.0810842370305  -0.470506670321 1589936333.85
-0.0119092968125  0.0723374483618  -0.452694277934 1589936333.87
0.00884909850111  0.0664821776374  -0.431054790195 1589936333.9
0.0294548755009 0.0621391523918 -0.406637838202 1589936333.92
0.0481787499619 0.0571979761341 -0.380696416048 1589936333.95
0.0636727066048 0.0490269937347 -0.354568449721 1589936333.97
0.0751907977117 0.0348396393242 -0.329549069113 1589936334
0.0826916509218 0.0121832097104 -0.306763070239 1589936334.02
 0.0868134417632 -0.0205236303307  -0.287047216378 1589936334.05
 0.0887352557408 -0.0635098462493  -0.270853250552 1589936334.07
0.0899552880352 -0.115344596094  -0.25818398477 1589936334.1
 0.092025274492 -0.172904261972 -0.248574948944 1589936334.12
0.0962829102458 -0.231668994725 -0.241131298841 1589936334.15
 0.103621081435 -0.286335802275 -0.234623569669 1589936334.17
 0.114325842175 -0.331661271151 -0.227637155324 1589936334.2
 0.128005688291 -0.363386621835 -0.218760546213 1589936334.23
 0.143623695108 -0.379066891009 -0.206788363034 1589936334.25
 0.159631446601 -0.378632931292 -0.190909422425 1589936334.27
  0.17418957674 -0.364559118569 -0.170849375904 1589936334.3
 0.185445754817  -0.34158199264 -0.146942452969 1589936334.33
 0.191829550631  -0.31599992153 -0.120116610002 1589936334.35
  0.192317138255  -0.294663902936 -0.0917891148078 1589936334.37
  0.186619338726  -0.283830080111 -0.0636830888207 1589936334.4
  0.175255842636  -0.288075074069 -0.0375875521533 1589936334.43
  0.159496667103  -0.309470074877 -0.0150921676079 1589936334.45
   0.14117604361  -0.347168721599 0.00266801709785 1589936334.47
 0.122408792167 -0.397493511308 0.0152232430829 1589936334.5
 0.105259480693 -0.454517402249 0.0229054896606 1589936334.53
0.0914262774955 -0.511046048617 0.0268889848335 1589936334.55
0.0820019074123 -0.559828005729 0.0291224770968 1589936334.57
0.0773625537329 -0.594771462941 0.0321508719226 1589936334.6
0.0772125266583 -0.611938953617 0.0388343684842 1589936334.63
0.0807803874983 -0.610130317037 0.0519855462598 1589936334.65
0.0871256166009 -0.590943196046 0.0739598507317 1589936334.67
0.0954815984146 -0.558304687328  0.106251424501 1589936334.7
 0.105540983297 -0.517575983708  0.149159902206 1589936334.73
 0.117592990288 -0.474420050654  0.201598100841 1589936334.75
 0.132453088854 -0.433670049995  0.261099451258 1589936334.77
 0.151179139124 -0.398432037939  0.324055060685 1589936334.8
 0.174631441777 -0.369600341171  0.386166594844 1589936334.83
 0.202989436499 -0.345870743569  0.443051663204 1589936334.85
0.235367595361 -0.32422689057 0.490895952288 1589936334.87
 0.269665397912 -0.300774636226   0.52702405978 1589936334.9
 0.302738386148 -0.271730152622  0.550267844076 1589936334.93
0.330897569407 -0.23434459193 0.561048839733 1589936334.95
 0.350651640307 -0.187573490837  0.561153042623 1589936334.97
  0.35952579394 -0.132364272291  0.553247572755 1589936335
  0.356747601376 -0.0715229582257   0.540250497964 1589936335.03
   0.343601714199 -0.00921049513546    0.524699946149 1589936335.05
 0.323323564148 0.0498093637645  0.508266342531 1589936335.07
0.300512048858 0.101007834384 0.491512641281 1589936335.1
 0.28016285875  0.14084663238 0.473942637451 1589936335.13
0.266524348479 0.167311791445 0.454304893264 1589936335.15
0.262030855215 0.180140334686 0.431059426319 1589936335.17
0.266562028695 0.180721803185  0.40288166626 1589936335.2
0.277213481091  0.17172320689 0.369079810276 1589936335.23
0.288658344589 0.156537930587 0.329834105112 1589936335.25
0.294053713344 0.138685958122 0.286218616221 1589936335.27
0.286326542726 0.121289360482 0.240022541563 1589936335.3
0.259585660952 0.106715323118 0.193433881425 1589936335.33
 0.210370502075 0.0964283878339  0.148672361164 1589936335.35
 0.138473716009 0.0910384975335  0.107657427419 1589936335.37
0.0471604746797 0.0904870097469  0.071774905057 1589936335.4
-0.0572663256754  0.0942901192878  0.0417714376217 1589936335.43
-0.166467235708  0.101761900914 0.0177699241636 1589936335.45
   -0.271426768417     0.112163548053 -0.000628147336454 1589936335.47
 -0.363893678234   0.124761457228 -0.0141995399452 1589936335.5
 -0.437613221549   0.138811865908 -0.0239565866788 1589936335.53
 -0.489121827211   0.153512338994 -0.0310290311381 1589936335.55
  -0.51798356525   0.167964393224 -0.0365728337358 1589936335.57
 -0.526478242976   0.181178278457 -0.0416917544426 1589936335.6
 -0.518868836741   0.192128003059 -0.0473529964278 1589936335.63
 -0.500452003783   0.199842219546 -0.0542875351641 1589936335.65
 -0.476612932174   0.203503060548 -0.0628839988147 1589936335.67
 -0.452065530136   0.202524476002 -0.0731026057281 1589936335.7
 -0.430378867459   0.196592732118 -0.0844434527756 1589936335.73
  -0.41379954954   0.185668592165 -0.0959966889888 1589936335.75
-0.403306369173  0.169965309988 -0.106582265957 1589936335.77
-0.398797592443  0.149922411943 -0.114960636865 1589936335.8
-0.399316713136  0.126190374327  -0.12007216661 1589936335.83
-0.403258540366 0.0996289390297 -0.121250568766 1589936335.85
-0.408544022052 0.0713080731694 -0.118358967348 1589936335.87
-0.412788711805 0.0424913584075 -0.111815259069 1589936335.9
-0.413502591372 0.0145806710126 -0.102500643588 1589936335.93
 -0.408344989278 -0.0109904709506 -0.0915735090651 1589936335.95
 -0.395425172609 -0.0329113189864 -0.0802326866181 1589936335.97
 -0.373602025144 -0.0501733547007 -0.0694841704306 1589936336
 -0.342711971755 -0.0622367139613 -0.0599620248266 1589936336.03
 -0.303654584472 -0.0691401565719  -0.051839307048 1589936336.05
 -0.258291807032 -0.0715191257865 -0.0448429739797 1589936336.07
 -0.209161354614 -0.0705163226822 -0.0383634160886 1589936336.1
 -0.159053583942 -0.0675952611364 -0.0316295845003 1589936336.13
 -0.110539150403 -0.0642915444259  -0.023908558913 1589936336.15
 -0.065550773637 -0.0619521758576 -0.0146859015258 1589936336.17
 -0.0251116118194  -0.0615163545614 -0.00379001677727 1589936336.2
 0.0107321413282 -0.0633817325504 0.00856226051879 1589936336.23
 0.0427663827676 -0.0673806907866   0.021803850935 1589936336.25
  0.072294719375 -0.0728666635172  0.0351265644229 1589936336.27
  0.100735773695 -0.0788869473673  0.0476341921275 1589936336.3
  0.129229624917 -0.0844013627662  0.0585051793006 1589936336.33
  0.158342077842 -0.0884991158214   0.067131405858 1589936336.35
  0.187926110032 -0.0905701667402  0.0732080511566 1589936336.37
 0.217159234599 -0.090400911369 0.0767627902202 1589936336.4
  0.244734427972 -0.0881834716795  0.0781268557232 1589936336.43
  0.269150148224 -0.0844482076871  0.0778620505369 1589936336.45
  0.289028050527 -0.0799448135681  0.0766641155285 1589936336.47
  0.303387441357 -0.0755046789335  0.0752635113021 1589936336.5
  0.311821563744 -0.0719148761245  0.0743409855147 1589936336.53
  0.314547803217 -0.0698238822865  0.0744691734299 1589936336.55
  0.312335133684 -0.0696851642328  0.0760844697642 1589936336.57
  0.306339713675 -0.0717324546222  0.0794866339979 1589936336.6
  0.297896362648 -0.0759743586923  0.0848580287956 1589936336.63
   0.28831596659 -0.0821972777822  0.0922909719705 1589936336.65
  0.278727782091 -0.0899724629421   0.101811152156 1589936336.67
  0.269986109324 -0.0986710898094   0.113387709273 1589936336.7
 0.262639694105 -0.107496315613  0.126925895653 1589936336.73
 0.256946299237 -0.115540866745  0.142244754822 1589936336.75
 0.252908978013 -0.121872891911  0.159047989897 1589936336.77
 0.250315403272 -0.125643830543  0.176899341342 1589936336.8
 0.248773279516 -0.126203146427   0.19521336451 1589936336.83
 0.247747135464 -0.123199093766  0.213268689269 1589936336.85
 0.246609115978 -0.116644332379  0.230245082891 1589936336.87
 0.244715723967 -0.106930631953   0.24528000994 1589936336.9
  0.241513787468 -0.0947866662072   0.257536619204 1589936336.93
  0.23666525097 -0.081184292004  0.266273858617 1589936336.95
  0.230166740252 -0.0672089139352   0.270910386683 1589936336.97
  0.222431177009 -0.0539164373628   0.271076185385 1589936337
  0.214298382602 -0.0422016298212   0.266648160487 1589936337.03
   0.20695138272 -0.0326998926222   0.257767658315 1589936337.05
   0.20173509357 -0.0257368124852   0.244838496531 1589936337.07
 0.199901140139 -0.021328824258  0.228504172681 1589936337.1
  0.202329378688 -0.0192263613661   0.209602982563 1589936337.13
  0.209293432631 -0.0189812670142   0.189100521319 1589936337.15
  0.220335958594 -0.0200162536754   0.168001209753 1589936337.17
  0.234296690177 -0.0216777316531   0.147244554859 1589936337.2
   0.24949737765 -0.0232635480363   0.127597342384 1589936337.23
   0.26404432058 -0.0240303289178   0.109558304374 1589936337.25
  0.276176010469 -0.0231959812326  0.0932948538669 1589936337.28
  0.284571836674 -0.0199570820122  0.0786300946326 1589936337.3
  0.288550833928 -0.0135365987406  0.0650910287873 1589936337.33
   0.288121103127 -0.00326616484325   0.0520159496451 1589936337.35
 0.283879604443 0.0113069104773 0.0387032505225 1589936337.38
 0.276796995853 0.0303096296892 0.0245702074645 1589936337.4
  0.267944945641  0.0534579186639 0.00928380089731 1589936337.43
   0.258230545258   0.0800216714656 -0.00717043394984 1589936337.45
  0.248194894945   0.108857038335 -0.0245011321618 1589936337.48
   0.23791405232     0.1385089101 -0.0422036349931 1589936337.5
  0.227015264004   0.167371399153 -0.0597085096813 1589936337.53
  0.214795588603   0.193881600496 -0.0765462987626 1589936337.55
  0.200409310441   0.216715084369 -0.0924838229248 1589936337.58
 0.183078808147  0.234951554735 -0.107594950746 1589936337.6
 0.162282253849  0.248185000742 -0.122246817263 1589936337.63
 0.137880384824  0.256562348498 -0.137005900321 1589936337.65
 0.110161803884  0.260745846916 -0.152490139101 1589936337.68
0.0798077039996  0.261805485206 -0.169206823393 1589936337.7
0.0477962176757  0.261057437519 -0.187417638474 1589936337.73
0.0152776154052   0.25987185643 -0.207062393429 1589936337.75
-0.01654853636 0.259477410433 -0.22775541875 1589936337.78
-0.0465329046599   0.260790256231  -0.248849210404 1589936337.8
-0.0736459995921   0.264291690449  -0.269544527217 1589936337.83
-0.0970251486511   0.269972056804   -0.28901871232 1589936337.85
-0.116014072864  0.277349295505 -0.306545092715 1589936337.88
-0.130209635031  0.285559517053 -0.321583620492 1589936337.9
-0.139521501772   0.29350513738  -0.33383293149 1589936337.93
-0.144236629094  0.300035199169 -0.343243447218 1589936337.95
 -0.14506660787  0.304125196263 -0.349997791659 1589936337.98
-0.143147832572  0.305022792111 -0.354467744604 1589936338
-0.139967383849  0.302332804251 -0.357156640739 1589936338.03
-0.137203594322  0.296028812982 -0.358633824342 1589936338.05
-0.136496443829  0.286396160623 -0.359465030283 1589936338.08
-0.139190790423  0.273926802933 -0.360140940609 1589936338.1
-0.146113892119  0.259195926885 -0.361006960245 1589936338.13
-0.157448631142  0.242751291508  -0.36220077234 1589936338.15
-0.172742684139  0.225039277084 -0.363609058254 1589936338.17
-0.191057096916  0.206378829986 -0.364857978733 1589936338.2
-0.211217008862  0.186979385044  -0.36535052189 1589936338.23
-0.232096087671  0.166985976939 -0.364356021236 1589936338.25
-0.252855056471  0.146528411967 -0.361143978515 1589936338.27
-0.273067580151  0.125753642917  -0.35513935436 1589936338.3
-0.292700143271  0.104830212774 -0.346064863927 1589936338.33
-0.311956444416 0.0839270053755 -0.334032409814 1589936338.35
-0.331038116137 0.0631805192315   -0.3195532393 1589936338.37
-0.349899889062 0.0426707137499 -0.303453954702 1589936338.4
-0.368080667375 0.0224224040504 -0.286709036794 1589936338.43
 -0.384671131304 0.00243784901196   -0.27022382018 1589936338.45
  -0.39843924087 -0.0172491726696  -0.254618248668 1589936338.48
 -0.408088360663 -0.0365203931343  -0.240066003103 1589936338.5
  -0.41258172422 -0.0551479551162  -0.226233428876 1589936338.53
 -0.411443507748 -0.0728162992841  -0.212339720086 1589936338.55
  -0.40494837476 -0.0891929434923  -0.197329673889 1589936338.58
-0.394138336514 -0.104030279054 -0.180121358984 1589936338.6
-0.380650806431 -0.117266392479 -0.159871689546 1589936338.63
-0.366392278811 -0.129090000165 -0.136198679717 1589936338.65
-0.353134418636 -0.139943971818   -0.1093107053 1589936338.68
 -0.342132027756  -0.150460551657 -0.0800162300961 1589936338.7
  -0.33385869563  -0.161342973107 -0.0496150821084 1589936338.73
 -0.327926296261  -0.173225075456 -0.0196971993223 1589936338.75
 -0.323206880352  -0.186546896433 0.00810848256617 1589936338.78
 -0.31812344758 -0.201478413138 0.0323859445028 1589936338.8
-0.311034261429 -0.217908364313 0.0521392735846 1589936338.83
-0.300615208979  -0.23549585514 0.0669208691125 1589936338.85
-0.286150940227 -0.253765520694 0.0768626330202 1589936338.88
-0.267674510234 -0.272217479644 0.0826105404832 1589936338.9
 -0.24593634463 -0.290422836115 0.0851808951412 1589936338.93
-0.222223528763  -0.30808203116 0.0857710411055 1589936338.95
-0.198079690055 -0.325033456976 0.0855653326365 1589936338.98
 -0.17498993587 -0.341211182175 0.0855764028893 1589936339
 -0.15409532982 -0.356562441185  0.086551514335 1589936339.03
-0.135990636795 -0.370946387732 0.0889557240522 1589936339.05
-0.120641060602 -0.384043013706 0.0930221548381 1589936339.08
-0.107430927978 -0.395302227394 0.0988412191767 1589936339.1
 -0.09533165983 -0.403955940058  0.106451491102 1589936339.13
-0.0831509539498  -0.409100953083   0.115898389615 1589936339.15
-0.0698052951175  -0.409841035188   0.127241474707 1589936339.18
-0.0545504213976  -0.405459020274   0.140511334982 1589936339.2
-0.0371138471757  -0.395580138222   0.155635506625 1589936339.23
-0.0176991921616  -0.380289189982   0.172363587078 1589936339.25
0.00313305097718  -0.360175673321   0.190221834159 1589936339.28
0.0246701972825 -0.336298495487  0.208517885144 1589936339.3
0.0462774744734 -0.310079795075  0.226400503702 1589936339.33
 0.067589178773 -0.283150342003  0.242962622343 1589936339.35
0.0886098283004 -0.257174301565  0.257363515051 1589936339.38
 0.109700169989 -0.233679563164   0.26894145782 1589936339.4
 0.131453517551 -0.213913993711  0.277292866302 1589936339.43
  0.15449532464 -0.198740379691  0.282305565515 1589936339.45
 0.179257244464 -0.188575213017  0.284147923509 1589936339.48
 0.205783260753 -0.183370165405  0.283226783533 1589936339.5
 0.233619636301 -0.182630787611  0.280131652589 1589936339.53
 0.261824077792 -0.185464502811  0.275579584976 1589936339.55
 0.289105191701 -0.190649027977  0.270366972723 1589936339.58
  0.31407428265 -0.196713329235  0.265325378729 1589936339.6
 0.335562466575 -0.202026641642  0.261272852516 1589936339.63
 0.352933189688 -0.204896351932  0.258952107215 1589936339.65
0.366310341591 -0.20368044523 0.258952297805 1589936339.68
 0.376650451483 -0.196921698098   0.26161985767 1589936339.7
 0.385615610933 -0.183506214621  0.266972852103 1589936339.73
 0.395248454515 -0.162837514601  0.274639344605 1589936339.75
0.407502772479 -0.13500171819 0.283840865901 1589936339.78
 0.423729338053 -0.100885139115  0.293436304436 1589936339.8
  0.444241308406 -0.0621996395218    0.30203026821 1589936339.83
  0.468076651996 -0.0213786000053   0.308135671688 1589936339.85
 0.493035350524 0.0186712750938  0.310366644032 1589936339.88
 0.516005784839 0.0549434718552  0.307628790744 1589936339.9
 0.533524215266 0.0847753980086  0.299272205109 1589936339.93
0.542452359255 0.106279742417 0.285179039346 1589936339.95
0.540626364274 0.118672078333 0.265770224711 1589936339.98
0.527334045361 0.122417771621 0.241931770799 1589936340
0.503514784263 0.119156721432 0.214876074621 1589936340.03
0.471638380979 0.111412836174 0.185964556314 1589936340.05
0.435290386742 0.102144412369 0.156523027692 1589936340.08
 0.398554913062 0.0942286535466  0.127680362746 1589936340.1
0.365326360774 0.089988035157 0.100254938028 1589936340.13
 0.338689900972 0.0908539198181   0.07470305053 1589936340.15
 0.320486692675  0.097227416577 0.0511309564179 1589936340.18
 0.311131844044  0.108549186455 0.0293599055076 1589936340.2
  0.309694405105   0.123541989969 0.00902419062523 1589936340.23
   0.31419415585   0.140554379019 -0.0103223008919 1589936340.25
  0.322032083031   0.157918823026 -0.0291143245902 1589936340.28
   0.33045664288   0.174244605856 -0.0477148932601 1589936340.3
  0.336975595559   0.188591141563 -0.0663923903357 1589936340.33
  0.339648025505   0.200502828716 -0.0853299699174 1589936340.35
 0.337225873254  0.209922503588 -0.104653044348 1589936340.38
 0.329150831146  0.217028365956 -0.124456673687 1589936340.4
 0.315442511169  0.222053143866 -0.144817052897 1589936340.43
 0.296530818869  0.225141958069 -0.165779447306 1589936340.45
0.273086791528 0.226288377168 -0.18732608585 1589936340.48
 0.245893365427  0.225361662081 -0.209337605062 1589936340.5
 0.215775494977  0.222209700947 -0.231566844413 1589936340.53
  0.18358481449  0.216799462275 -0.253641941423 1589936340.55
 0.150215085132  0.209346004337 -0.275106881604 1589936340.58
 0.116616173326  0.200384877378 -0.295494509111 1589936340.6
    0.083777504  0.190759678386 -0.314413982513 1589936340.63
0.0526649359472  0.181521374522 -0.331626610783 1589936340.65
0.0241141125137  0.173761622876 -0.347084245397 1589936340.68
-0.00129691692314    0.168421622293   -0.360913512695 1589936340.7
-0.0233594956502   0.166125680942  -0.373344793116 1589936340.73
-0.0422927870823    0.16708220944  -0.384602317158 1589936340.75
-0.0587232913272   0.171075745346  -0.394785418481 1589936340.77
-0.073582427024  0.177547519248 -0.403776248664 1589936340.8
-0.0879443753937   0.185737189709  -0.411204282206 1589936340.83
-0.102845026236  0.194842498034 -0.416484186362 1589936340.85
-0.119127487178   0.20415127319 -0.418924987688 1589936340.87
-0.137348352731  0.213111408672 -0.417889781233 1589936340.9
-0.157756610811  0.221324989748 -0.412971006143 1589936340.93
-0.180332501999    0.2284762225 -0.404139878268 1589936340.95
-0.204855496541  0.234222612419  -0.39183162009 1589936340.97
-0.230964624524  0.238089904074 -0.376940491701 1589936341
-0.258182531455  0.239411037837 -0.360718101852 1589936341.03
-0.285894181796  0.237338027275 -0.344590841437 1589936341.05
-0.313295340306  0.230936107674 -0.329931907438 1589936341.07
-0.339346005559   0.21934670641 -0.317834748845 1589936341.1
-0.362771998147  0.201985680987  -0.30893441999 1589936341.13
-0.382149726615  0.178731290911 -0.303311370551 1589936341.15
  -0.3960858878  0.150055725652 -0.300492387883 1589936341.17
-0.403472064161  0.117064553905  -0.29954174583 1589936341.2
-0.403763934768 0.0814269818869 -0.299218126834 1589936341.23
-0.397216163351 0.0452016016353 -0.298163545983 1589936341.25
-0.385003532432 0.0105827754039 -0.295090222027 1589936341.27
 -0.369177871781 -0.0203917155906  -0.288938210949 1589936341.3
  -0.35244489666 -0.0461231232916  -0.278987120079 1589936341.33
 -0.337787233792 -0.0656764116451   -0.26491569236 1589936341.35
 -0.327999178486 -0.0789088182858  -0.246810944859 1589936341.37
 -0.325224333279 -0.0864807060288  -0.225133109203 1589936341.4
-0.330591182385 -0.089747824847 -0.200644752524 1589936341.43
 -0.344021542128 -0.0905544608621  -0.174313768868 1589936341.45
 -0.364247572272 -0.0909629620778  -0.147201492703 1589936341.47
 -0.389025534925 -0.0929641265938  -0.120348768775 1589936341.5
 -0.415492280866 -0.0982135899176 -0.0946731890943 1589936341.53
-0.440585316325 -0.107831787794 -0.070888758059 1589936341.55
 -0.461445092457  -0.122291479286 -0.0494549585847 1589936341.58
 -0.475736377467  -0.141401026579 -0.0305568340007 1589936341.6
 -0.481854823489   -0.16437718269 -0.0141131488806 1589936341.63
  -0.479013811932   -0.189989793038 0.000192587560864 1589936341.65
 -0.46722727136 -0.216753098058 0.0128632200371 1589936341.68
-0.447213655486 -0.243134616375 0.0245245502173 1589936341.7
-0.420246440866 -0.267752964349 0.0358496842296 1589936341.73
-0.387971954501 -0.289539692801 0.0474740647357 1589936341.75
-0.352211267963 -0.307846291302 0.0599068680497 1589936341.78
-0.314762405896 -0.322485232066 0.0734483269259 1589936341.8
 -0.27722162687 -0.333702446634 0.0881260785231 1589936341.83
-0.240844762189 -0.342086710561  0.103665207808 1589936341.85
-0.206468092098 -0.348428491385  0.119504883886 1589936341.88
-0.174501140723 -0.353547544753  0.134868755999 1589936341.9
-0.144991332879 -0.358115222892  0.148887063201 1589936341.93
-0.117745156993 -0.362502304979  0.160757181119 1589936341.95
-0.0924766308989  -0.366682991831   0.169918284715 1589936341.98
-0.0689460883656  -0.370218254008   0.176207711407 1589936342
-0.0470536163216  -0.372327063019   0.179964307591 1589936342.03
-0.0268624207824  -0.372034781374     0.1820494643 1589936342.05
-0.00854612644957   -0.368369009396    0.183769773034 1589936342.08
0.00772368436473    -0.3605604455   0.186704211979 1589936342.1
0.0219138103437 -0.348204323929  0.192459663522 1589936342.13
0.0342436878674 -0.331347551229  0.202396450345 1589936342.15
0.0452354452699 -0.310484801618  0.217375669693 1589936342.18
0.0556751479623 -0.286468416594  0.237579229334 1589936342.2
0.0664867083912 -0.260356289762  0.262441124403 1589936342.23
0.0785464385308 -0.233234157076  0.290706903786 1589936342.25
0.0924848528815 -0.206051409868  0.320612003469 1589936342.28
0.108527477572  -0.1795033351 0.350144640281 1589936342.3
 0.126416923476 -0.153980190944   0.37734130365 1589936342.33
 0.145437605719 -0.129587794445  0.400556979931 1589936342.35
 0.164538419716 -0.106228377139  0.418659576241 1589936342.38
  0.182524553634 -0.0837175567673   0.431116668955 1589936342.4
  0.198273821611 -0.0619061019624    0.43796783004 1589936342.43
  0.210929478249 -0.0407750123844     0.4397008768 1589936342.45
  0.220030605713 -0.0204791571424   0.437069241944 1589936342.48
    0.22555885185 -0.00132735432303    0.430896189938 1589936342.5
 0.227900223388 0.0162965781821  0.421908743523 1589936342.53
