 -0.31809385891278 -0.512398297668618 0.0958590992238294 0.610675597544003 1589936312.76805
   0.4640794429605 -0.328992354150735 -0.150439456374496 0.588419687385139 1589936312.79913
 0.428301850504078  0.425392459733666 -0.218176215245015 0.641873882349263 1589936312.82427
-0.441329262353605  0.348393431556218 0.0115296692578698 0.562389930772494 1589936312.84364
-0.403894268721939 -0.313796851247689 0.0878178095380803 0.518951839606972 1589936312.86811
  0.170334592452986  -0.113430990839679 -0.0559631064482456 0.212161099997936 1589936312.89908
  0.235544467245751   0.440420351780923 -0.0867307335319883 0.506925539356535 1589936312.92451
-0.420241616431102  0.360459544584221 0.0371027981223909 0.554897032872767 1589936312.94421
-0.389971966128747 -0.184435247653685  0.174263257891083 0.465254960203769 1589936312.96943
  0.132634857052548 -0.0342232903275465  0.0941768092456821 0.166230292985036 1589936312.99902
 0.145831334697482  0.315916091840491 0.0798955257479252 0.357005672641145 1589936313.02474
-0.135788059800302  0.371687651878058 0.0208215162577036 0.396262089130697 1589936313.04479
-0.118893873757178  0.157953772643851  0.173710441513138 0.26317383038612 1589936313.07024
-0.0112211852701022   0.232263929443042   0.298469480880538 0.378360250206448 1589936313.099
0.0627284180884606  0.354979829656116  0.180684605715916 0.403227554417207 1589936313.12501
-0.118030434822748  0.351577510327023 0.0448930906146756 0.373568359068501 1589936313.14565
-0.13698886434516 0.289815162741617 0.174442538486912 0.364950649736762 1589936313.17125
-0.139840223826219   0.36154154657679  0.372726325628083 0.537766205629469 1589936313.19907
0.0044397486722761  0.488401773391214  0.239094314225749 0.543803360338125 1589936313.22565
-0.0865030986161386   0.361630393751222  0.0774800337302671 0.379819013981265 1589936313.24682
-0.0881465512687003   0.306504788715274   0.207816550204963 0.380660897052813 1589936313.27229
-0.118054464883124   0.37454736693042  0.382904058338237 0.548487105267976 1589936313.29919
0.0525564151325531  0.497071621307898  0.305550386442159 0.585835652838064 1589936313.3261
-0.0920122578011419   0.326239145624831   0.102055732475303 0.35399662181263 1589936313.34763
-0.111775295638456  0.193788660397531  0.198615400212738 0.29915855129914 1589936313.37284
0.012450412869497 0.326435562160317 0.372896929181664 0.495749239854846 1589936313.39934
0.196938376245826 0.540813535111757 0.345310822113134 0.671195625482517 1589936313.42628
-0.221205070540001  0.435014005152701  0.133180719527801 0.505871497482852 1589936313.44826
-0.245082447560575  0.187568875249654  0.219134244996961 0.378506679459016 1589936313.47334
-0.0172366852669764   0.299747552094626   0.430557739522674 0.52490538706379 1589936313.49945
0.151988597950754   0.6195684805498 0.439701519158107 0.774792270191031 1589936313.5268
-0.259990664481714  0.595550771515919  0.141189829616938 0.6649890488257 1589936313.54926
-0.327920429111493  0.263600903501956  0.183414310394525 0.458975003037433 1589936313.57395
0.0846920877535132  0.282242940455133  0.403017998333691 0.49925678177237 1589936313.5995
0.253413186150032 0.559942259647864 0.473734504180398 0.776001261278172 1589936313.62711
-0.0867336302541452   0.578300162079984   0.193909903188069 0.616080230678769 1589936313.6499
-0.143169006962842  0.305606174242923  0.201002314707666 0.392803295311994 1589936313.6745
0.0817519025080279  0.307729012748911  0.375418453633196 0.492259620707856 1589936313.69964
  0.2641456157513 0.511625057784148 0.447768126984599 0.729403455994391 1589936313.72736
0.0471693790678582  0.550566302873456  0.127201799428885 0.567034833109342 1589936313.75041
-0.0105692516358611   0.281052064535652   0.117765164902307 0.304910816673273 1589936313.77464
0.00378865829851358   0.329927512869151   0.312926522846709 0.454741164158974 1589936313.79979
0.154784446047523 0.492039052852224 0.400194997307632 0.65285273235241 1589936313.82736
0.0418324734650665  0.535887361511834  0.108350012550772 0.548329230740139 1589936313.85045
-0.00132087914786677    0.388563901228331   0.0895364400133851 0.398748572599043 1589936313.87467
-0.171984230989748  0.398797505622198  0.283825467960567 0.518820703579432 1589936313.89975
-0.133563767869303  0.496831842126337  0.399766208109299 0.6515321792392 1589936313.92805
-0.0242769027396479   0.477098270550293  0.0623168736106635 0.481762929774924 1589936313.9508
-0.0637515521142561   0.455905608812921  0.0362240899313789 0.461764408801083 1589936313.9747
-0.267831626246835  0.460156992339825  0.316919030425958 0.619609481418246 1589936313.99989
-0.183599425517822  0.460072587682348  0.450885352390379 0.669830677102358 1589936314.02873
0.0597807690014812  0.331000525442098  0.121063677783083 0.357479373200356 1589936314.05109
0.0116214048326847  0.336558873349097 0.0550738988751699 0.341233155800563 1589936314.07463
-0.177341499142664   0.46223099388939   0.28235229600485 0.569938872239253 1589936314.09975
-0.165990025745315  0.419063527301494  0.460977515261529 0.644722574552802 1589936314.12892
-0.0461953968667869   0.325208809047276   0.119805188231753 0.3496399109096 1589936314.15105
-0.173345399003434  0.179640191368838 0.0510319222763575 0.254800868919069 1589936314.1744
-0.0612660889502046   0.521730031306134   0.272724107595256 0.591890359851876 1589936314.1996
-0.045665973933257  0.674693160917322  0.476507439780053 0.827257869548317 1589936314.22871
-0.225165272238294  0.446997805702659 0.0824734612559885 0.507255665258339 1589936314.25083
 -0.315000455050318  0.0097581876245252 -0.0111886182808348 0.315350113503479 1589936314.27402
0.101998374570689 0.252608590138778 0.247167039461706 0.367840065277327 1589936314.29944
0.183091691282962 0.791044076715341 0.526411833931972 0.967668702411576 1589936314.32977
-0.325724502540887  0.596087190841251 0.0355547732611671 0.680206242651576 1589936314.35136
-0.510258837086831 -0.203241831945765 -0.130532417835518 0.564544094986266 1589936314.3742
 0.491236841777793 0.0711316856740977  0.190031680866411 0.531493547618005 1589936314.39943
0.437515428333481   1.0289400352241 0.509446844050403 1.22868768734358 1589936314.43133
-0.427818345435817  0.930826401320767 0.0562698287749914 1.02597885929369 1589936314.45234
 -0.73495742143994 -0.326638358213815  -0.21530069625588 0.832591987827488 1589936314.47448
 0.694750742913651 -0.231829455941199  0.132728451219195 0.744338856425022 1589936314.4995
0.750896242762743 0.876030416254109 0.533256016167353 1.27107688059229 1589936314.53283
-0.260402399019286  0.830309672837712  0.172285628457577 0.887077166877769 1589936314.55334
 -1.21007665172783 -0.532213409748555 -0.327468251749404 1.36190016979102 1589936314.57474
  0.267380776674744  -0.497982537321605 -0.0265009858721357 0.565845729386241 1589936314.59946
0.501077633954289 0.705909327634496 0.464786589809399 0.982554501367362 1589936314.63377
-0.233077616152569  0.850450046418096   0.12452219042745 0.890559505318289 1589936314.65397
 -0.73274748239196 -0.640842753055548 -0.265819194517811 1.0090877817463 1589936314.67493
 0.480825143601466 -0.728861269122683 0.0224308339275222 0.873461338959649 1589936314.69951
0.600448892750634 0.107897629015302 0.437262879288768 0.750586168775104 1589936314.73436
 -0.25975568278677  0.589411590722956 0.0745271207894048 0.648408304813985 1589936314.75437
-0.833004142874986 -0.710122818679215 -0.360310505895405 1.15238621143886 1589936314.77517
  0.371069484591248  -0.743662783725664 -0.0866155996416524 0.835601077305852 1589936314.79961
  0.599542457660277 -0.0159210592624805   0.304045463028885 0.672419721791244 1589936314.83402
-0.170669424738705  0.420237256113998 0.0449843614304579 0.455797100407812 1589936314.85417
-0.636567159341274  -0.74676415523124 -0.306050929403716 1.02788210572951 1589936314.87518
 0.481000063417411 -0.825373336221039 -0.154869254655139 0.967774090989028 1589936314.89977
 0.601015545348805 -0.179694415986635  0.145633901804078 0.643986802847993 1589936314.93347
 -0.162848002102714    0.25702680293155 -0.0271353858486876 0.305480896913729 1589936314.95383
 -0.60695523842271 -0.693404766220473 -0.315131283113317 0.973916093337965 1589936314.97521
 0.447942151515723  -0.76301537715906 -0.190920468166778 0.905149303734328 1589936314.99986
 0.626731128725156 -0.284262016464888 0.0801198279091701 0.69283186166774 1589936315.03239
-0.192079279401824  0.117260859282375 -0.114676863952392 0.252577397684592 1589936315.05311
-0.538559065900187 -0.759736907971982 -0.372886450936456 1.00314024048988 1589936315.07503
 0.482382518061568 -0.829340966350595 -0.251517063244006 0.991846845688208 1589936315.09987
 0.681119369336968 -0.373318616513626 -0.013931452885463 0.77684262891601 1589936315.13104
-0.155301333545342 0.0346299821791222 -0.164007002638476 0.228508286022947 1589936315.15227
-0.465390688095521  -0.75872021481692 -0.368660187703058 0.963408112346533 1589936315.17469
 0.451181437807373 -0.771416006983131 -0.356839793843916 0.962279576901794 1589936315.19981
 0.556049551862759 -0.168494750831216 -0.111194890741078 0.591562244325454 1589936315.22632
 -0.194079701291675 -0.0283601341874128  -0.297289827284094 0.356163542591322 1589936315.25111
  -0.3649119098534 -0.704174022733197 -0.385137191704838 0.88167591136392 1589936315.27407
 0.399067598575639 -0.688302916055747 -0.386757187990243 0.884645112429777 1589936315.29972
 0.462409871672633  -0.18288952825612 -0.157853749236591 0.52171762009165 1589936315.32574
-0.0813745612670473  -0.155533037358741  -0.373016794368846 0.412254622548553 1589936315.35062
-0.239147944846464 -0.765626876896595 -0.426665025916452 0.90852589313184 1589936315.37396
 0.488864598494296  -0.79504856580888 -0.376647464430542 1.00645622364696 1589936315.39953
 0.544729973961355 -0.324543469952533 -0.169274281941235 0.656287277758368 1589936315.42597
-0.0052851412298216  -0.201770802929732   -0.32435393189301 0.382027306310928 1589936315.45028
-0.141276300598874   -0.8066272378315 -0.370511184195963 0.898824249526499 1589936315.47385
  0.33807635793173 -0.874092496004989 -0.354314651698252 1.00193422327649 1589936315.49933
 0.541616102654131 -0.426566711730163   -0.2041495134135 0.719016123628326 1589936315.52676
-0.00988604596187785   -0.203588748068571   -0.288296567245209 0.353073679180791 1589936315.54984
-0.111112814307982  -0.77477237288635 -0.315351838972217 0.843839480964564 1589936315.57366
 0.188698262801198 -0.920826511506652 -0.356215906966094 1.00519563819854 1589936315.59915
 0.406093473028634 -0.467363161543934 -0.253081568537164 0.668872569282095 1589936315.62596
0.00295083585115136  -0.219015350663209  -0.323954020071392 0.391053242383649 1589936315.6488
-0.0795353210326442   -0.63557492674005  -0.339930269750433 0.725144084361851 1589936315.67328
 0.126772844948945 -0.772064727431369 -0.404146149275021 0.88061876401423 1589936315.6991
 0.322707863057734 -0.401316195573871 -0.322807048612943 0.607782398843018 1589936315.72599
-0.0370128445866433  -0.188233276588032  -0.317363687869186 0.370838816006889 1589936315.74851
-0.0807310957545025  -0.637685562416891  -0.322560701696683 0.719170211157085 1589936315.77298
0.0508413753088412 -0.776769778780227 -0.391185859433558 0.871196023458756 1589936315.79915
 0.289548314678951 -0.359781962340985  -0.34027125082606 0.573642581315301 1589936315.82587
-0.0360901193135755  -0.237001223113785  -0.291202636370904 0.377188350693473 1589936315.84796
-0.0623489247672121  -0.595366395589639  -0.261108657608673 0.653089782874628 1589936315.87261
 0.277506650515644 -0.711429566121634 -0.378164891835678 0.852144737735039 1589936315.89912
 0.489346946757703 -0.218063285654069 -0.339143261137051 0.634058500791535 1589936315.92583
-0.0581109996523261 -0.0927985356393179   -0.20351294453221 0.231097328174872 1589936315.9475
 -0.06881781197361 -0.670558239611388 -0.128230125268188 0.686168498972267 1589936315.97274
 0.327287129859408 -0.724744182901072 -0.366464185196141 0.875595223292146 1589936315.99905
  0.430126954176742 -0.0538034148380026  -0.342647245385111 0.552549671004875 1589936316.02525
-0.143582235723023  0.086005505197661 -0.183343940867728 0.248249483367912 1589936316.04657
-0.120738437644998  -0.57388408726294 -0.104006811434789 0.595598969746762 1589936316.07228
  0.28358434105903 -0.613752342350316 -0.328696160708044 0.751766707362458 1589936316.09903
  0.275393949175864 -0.0500331038151025  -0.312337805463036 0.419404391299753 1589936316.1251
0.0128334324830496  0.195873654117181 -0.180187397006722 0.266455781334487 1589936316.14625
 0.0326886355293064  -0.189938826717712 -0.0882168687868272 0.211961130224909 1589936316.17277
 0.075641871490764 -0.273256559973783 -0.263018171983488 0.386742031701839 1589936316.19905
0.0299864074588852 0.0253838281074028 -0.254646177857434 0.257659075638869 1589936316.22511
0.0530880745086956  0.151668720995264  -0.10762542815593 0.193403664311531 1589936316.24621
   0.056020555006221   0.0696763756633885 -0.00559695888555282 0.0895791597279034 1589936316.27301
 -0.113282789936815 -0.0256085577282448  -0.137824755703949 0.180234436248023 1589936316.29904
-0.0528871642503951   0.166392950911857  -0.149371245450582 0.229772572825962 1589936316.32526
-0.0193518956954566   0.169201805702806 -0.0190927358321042 0.171371758121495 1589936316.34644
-0.00893663528380201   0.0863619775786956    0.124684458042202 0.151935738714683 1589936316.37315
-0.158403140747408  0.050417651882868 0.0824764390580161 0.185569010396984 1589936316.39893
-0.066273344116502  0.288078065949649 0.0948466923185766 0.310446490180594 1589936316.42532
-0.141620716776514    0.2867917276066  0.110984758623292 0.338560982823689 1589936316.44673
-0.175511000917686  0.218179466644865  0.262311339831095 0.383684284422166 1589936316.47277
-0.244111984547341    0.1877378198031  0.254274606014579 0.399364151180263 1589936316.49877
-0.110010698126597    0.4917019603529  0.227061662419605 0.55265737130517 1589936316.52563
-0.280697019689974  0.445760688094259  0.154757691660594 0.54903856972094 1589936316.54756
-0.319716339932501  0.296582681687797  0.280519974977161 0.51852799486445 1589936316.57282
-0.231082125040354  0.244430636680337  0.324134191172866 0.467127668361026 1589936316.59875
-0.0124015153345067   0.655888361130578   0.373924145145625 0.755091124416142 1589936316.62602
-0.216557737225383  0.571858117791642  0.240872311899196 0.657220230269916 1589936316.64842
-0.235418255584811  0.348222306139034  0.345511895965807 0.544113039550854 1589936316.67314
-0.0584086650868142   0.243794965967599      0.419036685403 0.48830246907209 1589936316.69876
0.189194687223878  0.65411597977759  0.47777978017957 0.831826822735703 1589936316.72626
-0.16243428800445 0.630872830030781 0.232687901003974 0.691757966968357 1589936316.74896
-0.230344997912628  0.322996874393817  0.263782730101738 0.476410671198148 1589936316.77344
-0.131795274335147   0.25733785768356  0.372592486719671 0.471612052956865 1589936316.79899
0.0517307854544541  0.634233422383783  0.508801830098322 0.814743769871106 1589936316.82647
-0.221342831923071  0.618574316883949  0.233454816289704 0.697228790284099 1589936316.84941
-0.313770179241497   0.33288994706122   0.24715436556208 0.519954539024382 1589936316.87358
-0.202954776675274  0.285286043862074  0.419783555076177 0.546623271833699 1589936316.89932
-0.0625607138644633   0.628310624247786   0.558355751960601 0.84288150365835 1589936316.92681
-0.107090921337143  0.611143306202926  0.196206859918642 0.650739377960651 1589936316.9497
-0.17398691647661 0.418449600320433 0.171227979615102 0.484448692965972 1589936316.97371
-0.230009844990022   0.39417930412912  0.350597343139122 0.575500086544096 1589936316.99961
-0.107639889410331   0.63845135899702  0.503974544380639 0.820485725031876 1589936317.02808
0.0732959854254999  0.544705008886499  0.115779951103924 0.561676815671755 1589936317.05053
-0.0266581293178367   0.367575352832551  0.0598638280985345 0.373371093931108 1589936317.0741
-0.125825543288481  0.410637682180843  0.239854432130232 0.491920239452711 1589936317.09986
-0.00405471151222297    0.619110388631293    0.418184238905753 0.747122594803438 1589936317.12622
-0.0313113568238652   0.515160681941945  0.0910606363121874 0.524082978898019 1589936317.15075
 -0.119780645499078   0.168763457089822 0.00172459383792196 0.206957680961567 1589936317.174
-0.109148000651144  0.298290143077937  0.189332162043765 0.369779614213337 1589936317.20006
-0.155915281260789  0.532613941183444  0.363066113493478 0.663177342828335 1589936317.22591
-0.0309329178508778   0.457607590063937  0.0568364264524857 0.462160071039009 1589936317.2508
 -0.149102965173815   0.114832757037133 -0.0417005491553589 0.192762008996149 1589936317.2739
-0.156053484453137  0.173760743557373    0.1104839909578 0.25836446789282 1589936317.2999
-0.256107218484357  0.333733579754629  0.286893799343211 0.509192558583897 1589936317.32658
 0.0361722231190731   0.268720389611682 0.00422571027832023 0.271176942503943 1589936317.35112
-0.0925700544110882    0.04522221508959 -0.0988106937019627 0.142750891069527 1589936317.37388
-0.120261237570468 0.0752074373591436 0.0705697197431507 0.158426668338184 1589936317.39947
-0.255497879634578  0.175198761511432  0.273099722023589 0.412985751209732 1589936317.42964
0.0897615822708304 0.0799722691027938  -0.03468556877783 0.125123116004415 1589936317.45125
-0.0186291086969703 -0.0480333676565196  -0.166657630691261 0.174439141155002 1589936317.47381
-0.0681649440701698 -0.0402653083329328  0.0196851988297922 0.0815797873753295 1589936317.49632
-0.255422624991918 0.0335080062768913  0.219102625002748 0.338185546890326 1589936317.53008
  0.104131193911475 -0.0149767870647993  -0.130914968051115 0.167947427953029 1589936317.55138
-0.00391652923102248   -0.159060844924255    -0.28643360738362 0.327658210683067 1589936317.57382
0.000966763071137344   -0.153030176073859  -0.0875115363232055 0.176287941759157 1589936317.59613
-0.0750993802352353  -0.179422793437526   0.052853928742714 0.201558908263022 1589936317.62927
 0.220605817815043 -0.198205033431636 -0.139087508221998 0.327562966580296 1589936317.65094
  0.12634778047592 -0.286446152554318 -0.242473373669795 0.395990526254322 1589936317.6736
 0.185462290958241 -0.290775364818334 -0.147563136922954 0.375128582663674 1589936317.6972
 0.140574734407129 -0.209106889639523 0.0285391294394738 0.253577264669989 1589936317.72598
 0.401564616455695  -0.20992499075946 -0.195006767734664 0.49330546560614 1589936317.75056
   0.2767267843572 -0.317588164466779  -0.25884182464788 0.494407772569464 1589936317.7735
  0.27987691000373 -0.341893990888231 -0.180945444172166 0.477455589060784 1589936317.79931
  0.212679592018497  -0.225997962635217 -0.0163642256578898 0.310765950287038 1589936317.8254
 0.430358768476838 -0.200160316014582 -0.215046811764399 0.521073845977699 1589936317.85026
 0.327799312849275 -0.340028811270367 -0.279173042626033 0.548643390306921 1589936317.87352
 0.397449483727807 -0.368510656806379 -0.280597581016948 0.61032876285485 1589936317.89913
 0.377781788632469 -0.199019301361789 -0.127114574320371 0.445517538534154 1589936317.92534
 0.542578672009697 -0.162290876977293 -0.203680901946634 0.601843712177555 1589936317.95009
 0.430453861275655 -0.386940806485178 -0.232398537685956 0.623716918745268 1589936317.97364
 0.363078813076526 -0.499195291974882 -0.244624055940388 0.663975220004236 1589936317.99908
  0.411560969733116  -0.207439117911171 -0.0990062049997739 0.471397547804276 1589936318.02717
 0.467215585372551 -0.091815889257264 -0.117879901311246 0.490526484369872 1589936318.05002
 0.426487179585849 -0.287524747939081  -0.14441643468936 0.534245169970596 1589936318.07377
 0.393139590319061  -0.45095200678012 -0.244645655949701 0.646349709422319 1589936318.09902
  0.52823349267713 -0.122048223882319 -0.143868240082518 0.560913952619428 1589936318.12566
  0.383264100991948 -0.0793113228322166  -0.137010893983292 0.414672933899312 1589936318.14955
 0.340300616549032 -0.321349085391006 -0.147924874599795 0.490868121628052 1589936318.1736
 0.308649952713404 -0.413958840254068 -0.257270465264083 0.57690103746802 1589936318.19902
 0.481981922687513 -0.158558888493855 -0.217719179760084 0.552131448256086 1589936318.22573
  0.535236434268945 -0.0211550997480527  -0.161284916798298 0.559408976689612 1589936318.24948
 0.471123430548324 -0.147182237138576 -0.134675693388062 0.51162236085837 1589936318.27361
0.0191234427576976 -0.251211146744291 -0.265870177104856 0.36627816940852 1589936318.29908
 0.312291262409382 -0.284182916416013 -0.205750914479378 0.469701183061163 1589936318.32529
  0.760074016422203  -0.154040720335751 -0.0650989950830966 0.77825377167256 1589936318.34929
  0.707265534901922  0.0509898652441246 -0.0486258803214335 0.710766473220811 1589936318.37367
 -0.212096894991996 -0.0384856537003163  -0.240533731325003 0.322990269684885 1589936318.39906
0.0474952416385604 -0.361380440256917 -0.178348192434293 0.405782821621576 1589936318.42452
  0.953536534715778  -0.247387172252461 -0.0182778967032071 0.985274792908423 1589936318.44837
   1.01637419135215   0.281086054367715 -0.0719402463037679 1.05697741974225 1589936318.47396
 -0.20720772365466  0.046704174310252 -0.218434013327606 0.304679731551925 1589936318.49904
0.0245228674099943 -0.287270929320796 -0.135377316568786 0.318516837388869 1589936318.52388
  1.07530186033638 -0.332797781138517 0.0196947498431184 1.12579586832826 1589936318.54816
   1.13493208625556   0.364221766141612 -0.0686040397747583 1.19391576319987 1589936318.57462
-0.244973582218132  0.187859748399715  -0.22945375783924 0.384645769559652 1589936318.59906
-0.0843197668863754  -0.265555804693923 -0.0905425708544967 0.292963590965415 1589936318.62334
  1.04995306793682 -0.319186201105678  0.110171262626309 1.10291386016991 1589936318.64802
  1.13865049297336  0.422739080283474 0.0167190917372641 1.21470687952934 1589936318.67515
-0.412848337386741  0.212098001899544 -0.158760421689631 0.490544782448906 1589936318.69905
 -0.245014423673469  -0.447496867650477 -0.0142588483689018 0.51038106265989 1589936318.72276
 0.902912238298435 -0.471202242591031  0.195489768429598 1.03706234771713 1589936318.74801
 0.983411674223563  0.493927919239582 0.0289822232449449 1.10086478718676 1589936318.77572
-0.430602520120819  0.215287069642227 -0.161400858323081 0.50775711689445 1589936318.79908
  -0.309951935183466   -0.341714603830473 -0.00864647993897405 0.461425870764013 1589936318.82236
 0.610032764343522 -0.402197813164649  0.273566642097995 0.780219047547416 1589936318.84778
0.664690405270139 0.392019768419328 0.154170078534086 0.786931538829733 1589936318.87597
-0.633261626203363  0.198722268396094 -0.104658254432344 0.671910840364287 1589936318.89909
-0.465553070966063 -0.291184436763684 0.0369569239278619 0.550357931100776 1589936318.92255
 0.308131585221336 -0.362526903578521  0.303490803526103 0.564338105619462 1589936318.94792
0.332789889956564 0.360957578902282 0.178947636738095 0.522553099042048 1589936318.97592
-0.679925618083995  0.175280479187958 -0.117079861806293 0.711849553312948 1589936318.99917
 -0.516140736003298  -0.176323071260865 -0.0163887008102348 0.545673596882915 1589936319.02307
-0.0486552224632322  -0.230837257552947    0.20593773074023 0.313150952561138 1589936319.04807
-0.0374927347856686    0.28658613226747   0.131013840680637 0.317335694209819 1589936319.07554
-0.716723936396218  0.109521083637014   -0.1518846567018 0.740781356208253 1589936319.09937
 -0.526825719080221 -0.0444689161717755 -0.0531434515394472 0.531363387176243 1589936319.12377
 -0.234866181971364 -0.0885737254311524   0.208638081076614 0.326400485823613 1589936319.14875
-0.263905771288355  0.191861673590022  0.200040625069338 0.382718446890397 1589936319.17497
 -0.792130015343759 0.00421860046624092 -0.0943423202194315 0.797739450687242 1589936319.19947
   -0.663681715119746   -0.0610542556144166 -0.000953339608085214 0.666484770995802 1589936319.22453
 -0.458399621722695 -0.0844170777484082   0.216151654887747 0.513787888259155 1589936319.24905
-0.469904096292059 0.0738539583209612  0.244458515199604 0.534812333931563 1589936319.27421
 -0.958015363573028 -0.0698628982901427  0.0187851213908073 0.960743015683761 1589936319.29948
  -0.746197283725428 -0.00701661993686069   0.0897831242901735 0.751612019995589 1589936319.32485
 -0.333447237698181 -0.0952008995176796   0.215345831496608 0.408196152285256 1589936319.3493
 -0.359406195944203 -0.0160327574328966   0.208739895320756 0.415935339797552 1589936319.374
 -0.962006842995633 -0.0515526982879168  0.0714116130903553 0.966030260993596 1589936319.39948
-0.846016733455638 0.0218006621644391  0.146208925633389 0.85883446140256 1589936319.425
-0.156503929379403 0.0157470337970837  0.102534851026182 0.187762735012997 1589936319.44921
-0.195516470445639  0.209943032487664  0.103319820476472 0.304922535095272 1589936319.474
-0.926597499449198  0.023183323933461 0.0986793996296195 0.932125536827187 1589936319.49957
 -0.833080921617908 -0.0833719382256536   0.191477655669714 0.858858774577063 1589936319.52525
0.00698500725604797    -0.1268479450974   0.123386896722289 0.177097481022619 1589936319.54917
-0.0340146931302818   0.111047133745335    0.11688911994742 0.164777218157984 1589936319.57396
  -1.06432630945686 -0.0224322230321081   0.133998927740738 1.07296291187901 1589936319.59963
 -1.03519826756768 -0.204374991085824  0.151527622867167 1.06600432018272 1589936319.62544
-0.0200014356537553  -0.144079756852634  0.0366396950999429 0.150005003316363 1589936319.6491
-0.05502562522695 0.224180750633884  0.03498393545059 0.233470992043978 1589936319.67391
 -1.08151645524299 0.0667567629572853 0.0629157756975135 1.08539978956766 1589936319.69979
 -1.02115572391241 -0.165035164375732  0.112004562099692 1.04045213243606 1589936319.72587
  0.182875729288137  -0.121929324897231 -0.0935149696742343 0.238862601061228 1589936319.74935
 0.159289039738545  0.332338140546061 -0.044027117427245 0.371160376267987 1589936319.77404
-1.02637081653726 0.164503505703429  0.14362654728072 1.04934600657356 1589936319.79988
-0.948849676253866 -0.258825195981354  0.137738781731625 0.993115382115676 1589936319.8262
 0.124429829362128 -0.194274454914889 -0.154325999554794 0.277564155477885 1589936319.84947
  0.111427222284912   0.330240670663436 -0.0945730809056101 0.361135700337624 1589936319.87407
-1.04257732891751 0.184647617342797 0.218337594715497 1.08107980030583 1589936319.89983
 -1.04562057893406 -0.305538773796962  0.191236214914217 1.10600525644251 1589936319.92629
  0.23551383206577 -0.163606170957184 -0.162015770378661 0.329367354364342 1589936319.94924
  0.193412802352421    0.36315982750556 -0.0932032636576394 0.421877257960322 1589936319.97354
-0.987525489868965  0.209078579986722  0.212555932475625 1.03155245633985 1589936319.99971
-0.973822851921421 -0.347474930749146  0.171884936149976 1.04814798845334 1589936320.02643
 0.263106815596507  -0.16362173437233 -0.128713050422079 0.335506062123027 1589936320.04895
  0.260270739890905   0.355202762013102 -0.0262735965425224 0.44113508368795 1589936320.07293
-1.08625301176125 0.236674951983315 0.306741407162754 1.15327833991837 1589936320.09875
 -1.05326463127084 -0.358975705990251   0.25198257418438 1.14093170640047 1589936320.12702
 0.344684667335252 -0.249665270638307 -0.150531480108234 0.451442126703399 1589936320.14915
  0.381758093331597    0.32561760279966 -0.0502565566226197 0.504273523557142 1589936320.17262
-0.851046391970031  0.261550457418299   0.32595536026061 0.948122091264386 1589936320.19934
-0.713711978727132 -0.370267335545988   0.27770559256504 0.850648625751446 1589936320.22771
  0.28422327876695 -0.364263022916571  -0.17957454478078 0.495698940074092 1589936320.24938
  0.276023405112134   0.135955089378311 -0.0587834308345675 0.313254207055937 1589936320.27249
-0.737581942511644   0.10960519062335  0.332148850526878 0.816310773319302 1589936320.29881
-0.581082014973576 -0.317547711921689  0.239880171370015 0.704297773735626 1589936320.3284
 0.354098896111374 -0.283839728952274 -0.261641003170813 0.523838748566029 1589936320.34983
 0.353215129580073  0.145338866944335 -0.196158027609513 0.429374295696173 1589936320.37262
-0.530992985985276   0.13083488317146  0.164775617849608 0.571158753813481 1589936320.399
-0.359715462835852 -0.210962266008372  0.144450413311435 0.441323253169877 1589936320.42889
 0.270066357787219 -0.177061059026827 -0.240038922504063 0.402374378594199 1589936320.45014
0.266024022195276 0.104034478345348 -0.19657799869339 0.346748990827429 1589936320.4728
-0.501350643551184  0.124523975698748  0.114536468070378 0.529128803630124 1589936320.49903
 -0.301658769375938 -0.0593937556690891   0.113478592907002 0.327724003396209 1589936320.52923
  0.299401967524032 -0.0501279567057752  -0.271628819802766 0.407353121932557 1589936320.5504
 0.293811746026986    0.1270721772233 -0.286462229211017 0.42957338033477 1589936320.57298
  -0.28936818250959    0.13910978440205 -0.0286620577006047 0.32234607290445 1589936320.59902
 -0.107395796415829  0.0427335195261396 0.00872425681924381 0.115914293492776 1589936320.6294
 0.363878292701101 0.0212551566565307 -0.235445027060453 0.433928052044413 1589936320.65065
 0.357069483252242 0.0214219312710097 -0.203977926623425 0.411782114180539 1589936320.67325
0.00695117082607738 0.00405182981221495  0.0604805136513674 0.0610133479839756 1589936320.69902
  0.203620330225798 -0.0369470442649181   0.113787870541773 0.236165201593309 1589936320.72915
  0.39358215361797  0.045160958742609 -0.177743003389996 0.434210777267455 1589936320.75064
  0.367811331490928 -0.0877768850628758  -0.207336006908253 0.431251871746813 1589936320.77347
     0.1802117836276  -0.0930235583044714 -0.00701224670371175 0.202925703058287 1589936320.79881
 0.349883798714956 0.0587563937064593 0.0655223256699379 0.36078270685524 1589936320.82874
 0.338177617000391  0.174379883640973 -0.218802637441462 0.438915753431159 1589936320.85058
 0.282114157845242 -0.045828207764725 -0.265583986373724 0.390158271092406 1589936320.87374
   0.36411875727414 -0.0870301611537018 -0.0929993929846846 0.385753296090679 1589936320.89871
  0.576840589003422    0.19549474968073 -0.0268324314912369 0.609658299094072 1589936320.92823
 0.293393645974799  0.343546234880958 -0.276568890404421 0.529711429118535 1589936320.95048
  0.217488774812739 -0.0800554881325921  -0.362830324885921 0.430530014060015 1589936320.97411
 0.336958588577605 -0.159246827995357 -0.073545886209317 0.379881086685173 1589936320.99843
 0.459624136284128  0.179468276378318 0.0450826018728991 0.495475175839078 1589936321.02761
 0.440312109528177  0.309769496254411 -0.211626372086666 0.578461421331993 1589936321.05027
  0.363464399018248 -0.0841456342588637  -0.242927321873662 0.445197193197837 1589936321.07425
  0.336113828358172  -0.216426151137386 0.00335307737548757 0.399779974032736 1589936321.09821
 0.529192875641004 0.0352592007881198 0.0948901154377038 0.538787940545436 1589936321.12706
  0.47397677596896  0.165166707903773 -0.193854542639988 0.538064688731623 1589936321.14996
 0.429975071766365  -0.11150154431355 -0.209391703947614 0.4910764119838 1589936321.17407
  0.386914709714471  -0.234416783170973 -0.0498911773847767 0.455130036809811 1589936321.19935
  0.492365926313558 -0.0101452078354568  0.0584312841403976 0.495924737841266 1589936321.22659
 0.529109462035215 0.0888396089075383 -0.203043675174141 0.573651490849854 1589936321.24972
  0.479519510991723 -0.0771682814150169  -0.216624987227293 0.531808508929213 1589936321.2741
 0.353642838062374 -0.187700544645783  -0.11379660627115 0.416226403501706 1589936321.29937
  0.547890462956623 -0.0104723031552155 -0.0212634635830862 0.548402920684917 1589936321.32619
 0.492586817925572  0.019707533011507 -0.138532076377694 0.512075479042841 1589936321.34959
 0.466251959542784 -0.136959752168096  -0.13421511388086 0.504145376142124 1589936321.37418
 0.436201441378481  -0.25524612239147 -0.121591054113678 0.519814067621319 1589936321.39939
  0.546691950694481  0.0484458122531701 -0.0116531960466369 0.548957997170191 1589936321.42587
  0.548336162799152  0.0814380726911812 -0.0801028863927395 0.56010818555472 1589936321.44944
  0.529758077696477  -0.104297490075206 -0.0778947241721334 0.545517346538592 1589936321.47416
 0.446809321854956 -0.205716784120694  -0.19089638116318 0.527635663793345 1589936321.49942
 0.594050654483948  0.142176483611685 -0.126597154989292 0.623808602246213 1589936321.52564
 0.606671544971706  0.134711394670653 -0.129402552301955 0.634777554639993 1589936321.54959
  0.580865206746537 -0.0139139248913481  -0.088278831095835 0.587699870456193 1589936321.57431
  0.339988921191751 -0.0715378677160377  -0.184203665657301 0.39324435595705 1589936321.5995
   0.45552243942225   0.163878271828727 -0.0971215801454091 0.493750323670485 1589936321.62532
 0.540748540063205   0.14142104192372 -0.050479525902491 0.561210368056951 1589936321.64951
   0.50391042333976  0.0399509239282135 -0.0105589943868077 0.505601902128181 1589936321.6743
 0.303677998008926 -0.041559919224796 -0.198022337970603 0.364911495702759 1589936321.69949
 0.414284085539354  0.154617636083842 -0.114353444103729 0.456743502523812 1589936321.725
 0.554564581736631 0.0996071964334866 0.0133408222343567 0.563596882918946 1589936321.74926
  0.601715960121032 -0.0153131406178189  0.0616004261281191 0.605054709459502 1589936321.7745
 0.350477042426266 -0.147096552896417 -0.110846819753228 0.395927481480227 1589936321.79942
  0.515427750053703 -0.0721358849340932 -0.0113599560200442 0.520575066653624 1589936321.82408
  0.544650631193816 -0.0787395073143652  0.0796554714493594 0.556047852440553 1589936321.84839
   0.599138077205159 -0.00140001081377353   0.0781613581975989 0.604216512106933 1589936321.87513
 0.131507725356394 -0.085964034695289  -0.17128668739908 0.232428970590277 1589936321.89941
  0.279323956150115   0.019110754983498 -0.0865596906277115 0.293052339142611 1589936321.92362
 0.435697501212444 0.0236016969096597 0.0857253591611912 0.444677624648575 1589936321.94847
 0.470278861456431  0.221516660195417 0.0529701295199475 0.522530068893886 1589936321.97559
0.0159641824641703 0.0673611135399915 -0.238999364080909 0.248823372636446 1589936321.99951
    0.199484964542 0.0906097469250201 -0.151857823027857 0.266580523915194 1589936322.02333
 0.401907438044321 0.0718997339319312 0.0688986102654778 0.414060598211598 1589936322.04889
 0.409191203629677  0.226181843439148 0.0539225985070542 0.470641385833405 1589936322.07607
-0.0889290377941764   0.038252950927104  -0.206324289432955 0.227906503697555 1589936322.0996
 0.0760620702980428   0.032286767974437 -0.0922798649909914 0.123868669997765 1589936322.1231
0.0695180269043244 0.0128128931091809   0.19123179975164 0.203878707889639 1589936322.14918
0.0835284703003436  0.107107690395681  0.166123916016492 0.214583825497792 1589936322.17619
 -0.204717359552463 -0.0976867166822469  -0.109383433654409 0.25182658214795 1589936322.19953
-0.0342215141917424 0.00925308266498419 -0.0257420941372544 0.0438108089739498 1589936322.22312
 -0.157111449297782 -0.0146313179190134   0.193602434979106 0.249759856250631 1589936322.24934
 -0.147781602833067 -0.0196683995491588   0.196314081451654 0.24650652456465 1589936322.27599
-0.394421141952768 -0.127623327369191 -0.125879271503306 0.433245129115507 1589936322.29949
 -0.209294498486653  0.0632996704852467 -0.0481777815341478 0.223902063442641 1589936322.3235
  -0.3615378677289 0.0482735886413181   0.21318666932309 0.422479023312807 1589936322.34925
 -0.368176852658696 -0.0256878664451387   0.234327524537254 0.437176680613141 1589936322.37562
 -0.440673188306017   -0.14511532570663 -0.0985424358283105 0.474301516238045 1589936322.39952
 -0.257924052762161   0.129786415577396 -0.0382493413996326 0.291259923057038 1589936322.42423
-0.448022699937978 0.0844688740296192  0.175880209571958 0.488664689187405 1589936322.44965
 -0.461707970627555 -0.0799262711215407    0.21209333271849 0.514340393844432 1589936322.4751
-0.449116058905526 -0.189411209780487 -0.129103882314277 0.504231745515847 1589936322.49964
 -0.340595073350567   0.106447638644291 -0.0380964798565067 0.358869677656222 1589936322.52497
-0.492469046014061   0.13288700111894  0.171666071653697 0.538195091491363 1589936322.55011
  -0.51208976247174 -0.0629161993868539   0.194181897214522 0.551272148924178 1589936322.57488
 -0.734513963015288   -0.16067622588633 -0.0319024097724304 0.752559217057892 1589936322.5997
-0.623477569769534 0.0669792125426053 0.0940961708706384 0.634085628516423 1589936322.6252
-0.361636139548681 0.0534395644531252  0.206475786927982 0.41984370313742 1589936322.65012
-0.411013082567344 0.0399807797479646  0.191914608822715 0.45536955746991 1589936322.67475
  -0.874747618636494  -0.0922559800472274 -0.00297279779833795 0.879604115322024 1589936322.69971
 -0.796099240630012 0.00522567366708243  0.0879350373125292 0.800958100891746 1589936322.72544
 -0.256831541821799 -0.0244091311483339    0.14642608147799 0.29664599086281 1589936322.74984
-0.275117978126109 0.0728683053837347  0.141485227144974 0.317832914151383 1589936322.77466
 -0.885207863614502 -0.0517921109372082  0.0160364398415632 0.886866704732495 1589936322.79976
 -0.823180101122828 -0.0937731849462781    0.10075599457667 0.834608087393534 1589936322.82582
 -0.203372799214627 -0.0737744572879923  0.0570002227337057 0.223723470830002 1589936322.84978
-0.236225875243136 0.0780630881115978 0.0352689606612784 0.251277554600549 1589936322.87463
 -0.919578366804426 -0.0501578910628282  0.0325677221903813 0.92152094021744 1589936322.89984
 -0.875396883146102 -0.0887770673842118   0.111095840314017 0.886872796093289 1589936322.92603
 -0.0400474572342066  -0.0872875885483817 -0.00423708604027111 0.096129469173765 1589936322.94972
-0.0533329319450003   0.176707556052175  0.0162021394598107 0.185290235357554 1589936322.97442
-0.855345518538106 0.0100388677314803  0.130620578751589 0.865319866027559 1589936322.99983
-0.820222231101485 -0.101236324543345  0.200698052373282 0.850466348556233 1589936323.02624
-0.0626084729728002 -0.0788119892275422 -0.0331620871868322 0.105975820641197 1589936323.04962
 -0.140979183312735   0.181762215283994 -0.0346142822380249 0.232617242626863 1589936323.07428
 -1.07061388572099 0.0578683422251038  0.131594631237534 1.08022219209801 1589936323.09971
 -1.03002458431957 -0.143206015932698  0.179668745775448 1.05533855492469 1589936323.1265
-0.0676992920775333  -0.126695809466239 -0.0345710265779169 0.147750391413206 1589936323.14956
-0.0799738950918167   0.126835293531598 0.00135329924674209 0.149949481493784 1589936323.17396
-0.997856978719891 0.0250934339875877  0.168011685107921 1.01221349365738 1589936323.19968
-0.932168693000739 -0.206982621101184   0.19395929341434 0.974371841316452 1589936323.22671
 0.0906245188291108  -0.140186733973757 -0.0785855841537613 0.184501538833758 1589936323.24938
 0.0709865483921037   0.201226987381498 -0.0152768260182654 0.213927024745473 1589936323.27337
-0.864215508267482  0.123557318870553  0.225076118605856 0.90155094972119 1589936323.29958
-0.773660762151602 -0.243492706289063  0.215906740504025 0.839318410082873 1589936323.32716
  0.14026182988607 -0.183781616810205 -0.145109605350574 0.272957617892158 1589936323.3494
0.122575388369464 0.199903137695137 -0.08088142404227 0.24804796925069 1589936323.37305
-0.819857048264493  0.143592192747502   0.24662739799243 0.868106773874919 1589936323.39941
-0.738356730124912 -0.218900859401658  0.241069454945163 0.806971331135806 1589936323.42786
 0.164501416422517 -0.183274346648071 -0.162047928322746 0.294804567837721 1589936323.44961
  0.146686470710887   0.198978899787305 -0.0596926496742393 0.254308347631991 1589936323.47275
-0.847858485823599  0.129922690632334  0.296857532228072 0.907671918682501 1589936323.49941
-0.760642601370918 -0.286491442697345  0.296729840863198 0.865276321308877 1589936323.52848
  0.14149777670632 -0.263356095919133 -0.152576987676214 0.3356453354941 1589936323.54974
  0.136063675112028   0.185418926106585 -0.0715101564073737 0.240846848251991 1589936323.57242
-0.715207384130893  0.144283313224037  0.236546267329659 0.767002877033623 1589936323.59868
-0.570991342770078 -0.186165839416905  0.211943700512517 0.636874371812147 1589936323.62915
 0.320689751692405 -0.218295353441237 -0.215638055350852 0.443840679850403 1589936323.65013
 0.332425276267512  0.177883537911696 -0.146474385011003 0.4044797434061 1589936323.67255
-0.480997029359231  0.156085190644913  0.172945748757362 0.534444535012108 1589936323.69886
-0.334915648274561 -0.150656851164044  0.142940436170482 0.394078604537777 1589936323.72949
 0.347299425693855 -0.160358746191832 -0.228452216113833 0.445558339182221 1589936323.75041
0.352072570853694 0.113660125909526 -0.16859537677403 0.40656871551913 1589936323.77273
-0.377350907635071  0.102249924810764  0.121379967187796 0.40936762335501 1589936323.79895
 -0.256297944220667 -0.0415962464912608   0.134677195176181 0.292500992877675 1589936323.82967
  0.345578284800625 -0.0382499380740841  -0.214926807262519 0.408755356134294 1589936323.85062
 0.348721920543178  0.141269287505555 -0.193965465219105 0.423304371767306 1589936323.87297
-0.210110006164036  0.121325545373038  0.038218190554213 0.245615009190307 1589936323.89867
-0.0341215693012136 -0.0408884309904711  0.0404715059729049 0.0668886244151793 1589936323.92966
  0.340067937618734 -0.0162597588493173  -0.224159012316244 0.407624637082563 1589936323.95069
 0.318930135242536 0.0263923449214165 -0.203880577130977 0.379447330689693 1589936323.97313
  -0.170647768794057   0.0152086983063832 0.000904939253633653 0.171326543225553 1589936323.99874
0.00724607808836595 -0.0232606962955377 0.00245009396217414 0.0244860899336628 1589936324.02943
 0.315115943468103 0.0243530560075862 -0.265210736434506 0.412586795577409 1589936324.05062
 0.285894896850647 0.0155768618724159 -0.278586057207174 0.399485571630908 1589936324.07323
-0.0943412352132239 -0.0273266393876247 -0.0198781233065193 0.100210546690293 1589936324.09921
 0.0748707472349235 -0.0550870796896803  0.0338483002713203 0.0989238220627896 1589936324.12919
  0.307666996786235 0.00543389043518347  -0.236885870148743 0.388334164802493 1589936324.15056
  0.254905725727775 -0.0856506368405006  -0.262241220713533 0.375610727271348 1589936324.17329
-0.0555136891685326  -0.116581115124142 -0.0870569252214263 0.155730004551782 1589936324.19937
  0.115526307595719 -0.0348912581962152 -0.0377145178713797 0.126436199339771 1589936324.22891
 0.282296547060148   0.05766005144317 -0.236109235074126 0.372509856113634 1589936324.25035
 0.222111799564548  -0.12466197979329 -0.246169404668713 0.354222580458577 1589936324.27317
-0.0682129315283827  -0.226749599209968 -0.0524892672339168 0.24253558078008 1589936324.29903
   0.119805135752404    -0.16969802459839 -0.00518079316734738 0.207792037198471 1589936324.32845
  0.330271802705076 -0.0581569464686701  -0.224522494905498 0.403574088369421 1589936324.34997
 0.303332871858115 -0.173966059738258  -0.22583525691013 0.416265040994571 1589936324.3729
 0.0718345734744339  -0.298038516524235 -0.0157136025641358 0.306975700314803 1589936324.39895
 0.346631448161664 -0.128030167291251 0.0246833981299567 0.370343563106637 1589936324.42824
  0.419819291239042 0.00712514169374549  -0.195829784870242 0.463301532031713 1589936324.45001
 0.400055488064748 -0.105416601275019 -0.187084523992057 0.454045892473916 1589936324.47323
  0.233090879449832  -0.170153062938853 -0.0244774847605814 0.2896248783692 1589936324.49899
 0.455356829307727  0.106501036972194 0.0554475464707936 0.47092116461566 1589936324.52823
0.215814375123263 0.238779194005586  -0.1260652290946 0.345664273517637 1589936324.55031
  0.158837185589349 -0.0346330438136903  -0.149606503908611 0.220931675550392 1589936324.57378
  0.298445698195847  -0.123059443366762 -0.0412662611517013 0.32544794619537 1589936324.59888
  0.56686851794624  0.287716895901362 0.0782226731298964 0.640499582683134 1589936324.62829
   0.36436748268796   0.401961089544255 -0.0472224170666442 0.544579045338307 1589936324.65089
  0.288140348863198  0.0667289179817133 -0.0192742954691255 0.296393501284773 1589936324.67481
  0.283064212941374 -0.0643562884945676   0.215227989334573 0.361372616436163 1589936324.69887
0.503815075833538 0.275853235965851 0.412677816604311 0.707267713632742 1589936324.72804
0.306327812997215 0.342185080549539 0.252582335796192 0.524142342043277 1589936324.75086
 0.257034212440528 0.0951890435071551  0.320533619821601 0.421745588956978 1589936324.7749
  0.277331989598963 -0.0661410482701488   0.489468343248413 0.566451171561627 1589936324.79876
0.464684552729193 0.181873709721389 0.665598304813953 0.831883936137823 1589936324.82757
 0.17357617068406 0.288169813208505 0.299551168093789 0.45044581314551 1589936324.85058
0.0964631775536823 0.0225191290979964  0.301535712879138 0.317389416869271 1589936324.87502
0.0595834462652823 -0.106929924297512  0.492451612812969 0.507437470769763 1589936324.89862
0.241316941170267 0.146911395782356 0.725973378959337 0.779008453910567 1589936324.92757
0.198662076116927 0.187082011600715 0.465870166521988 0.539908614125467 1589936324.95077
 0.124677327346374 0.0530418362493232  0.525553083238808 0.542737427904831 1589936324.97533
-0.0824080232991345 -0.0705652154449756   0.757135830260445 0.764869398916599 1589936324.99862
0.0528797068374395  0.130277620573223   1.07265172255217 1.08182726888887 1589936325.02747
0.142806934165755 0.169541506937277 0.640048835040798 0.677348251830229 1589936325.0512
0.0438249709493714 0.0480437227467602  0.630664338370602 0.634008150630976 1589936325.07579
  -0.41685061504445 -0.0128648445455179   0.750058718036805 0.858206280559128 1589936325.09873
 -0.346310661066963 -0.0135799273713671    1.01392589891467 1.07152284944651 1589936325.12776
  0.138020610635151 -0.0881566431551789   0.542629371988331 0.566805008831909 1589936325.15203
    0.133169133499565 -0.000841250142519622     0.514059051831467 0.531028657031515 1589936325.17649
 -0.342492724727189 -0.0461210303596846   0.649648200018001 0.735847266570395 1589936325.19917
-0.257432023534148 -0.228158845433302  0.907802474948384 0.970789904671837 1589936325.22816
 0.402331745949155 -0.275881885246637  0.541591916465819 0.72890565396823 1589936325.25266
 0.472028472475818 0.0251469272629013  0.541467461169659 0.718769962007412 1589936325.27717
-0.359169308398633 0.0788594411216796  0.669102508074869 0.763491696000458 1589936325.2996
-0.334251807588656 -0.262891191239465  0.881838202342125 0.979017193116433 1589936325.32844
 0.445955961068022 -0.295443245706272  0.544854514908636 0.763563928601846 1589936325.35298
0.52145427068682 0.11794900613632 0.55069372948509 0.767522057116449 1589936325.3775
-0.414940900241119  0.220726804174553  0.671556926144367 0.819685901932254 1589936325.39987
-0.409113445873326   -0.3775807267486  0.851856558673088 1.01764464001964 1589936325.42852
 0.405170150374206 -0.378697588265795  0.572606370724252 0.797152915008523 1589936325.45315
  0.55383573395405 0.0828517038773924  0.603501747222112 0.823293862445209 1589936325.47758
-0.424469145933081   0.18501250414996   0.68569405046165 0.827393505763431 1589936325.49996
-0.441416178778306 -0.381269727330971  0.811134897016105 0.999076908462807 1589936325.52835
 0.256270108464349 -0.256024934699908  0.504900790407171 0.621408033287475 1589936325.5532
0.443448541313728 0.034445336905161 0.510713348245673 0.677245313091268 1589936325.57762
-0.365785085305659  0.150061083256223  0.585721639377903 0.706673118333815 1589936325.60007
-0.374887809692635 -0.266570092607476  0.655537898750623 0.800831081331938 1589936325.62841
 0.127597563361832 -0.126706595922803  0.392004838752032 0.431281222905923 1589936325.6537
0.291619765406142  0.05766597313148 0.411230600914907 0.507422958843576 1589936325.67796
