  0.28545965465866 0.0874577382555011  0.128483298405167 0.325029273124253 3113.45866432954
 0.351988776030888 0.0789781454845072  0.133074700337097 0.384502954196327 3113.47858433153
0.240387606984084 0.109110706230378 0.167810277363794 0.312812462978284 3113.49850432969
  0.14583553510502 0.0758910064403776   0.20099449428427 0.25966562131035 3113.51872433076
-0.051737067142184  0.101365159235842  0.116259886414305 0.162689830083044 3113.53862432847
0.0621374048381418 0.0643964751237313 0.0661270195410051 0.111268799767756 3113.55850432954
 0.0548246941767724 -0.0175651106207702  0.0798471193295413 0.0984369984707098 3113.57840432725
0.0613474529256115 -0.178240366499072  0.134888748064689 0.23179325396707 3113.59834432969
0.175918447758563 -0.29814185248577 0.171619490897024 0.386379494954355 3113.61828433008
 0.367139651519808 -0.400759005708804  0.100344257650545 0.552691843994676 3113.63838433046
 0.269821195589357 -0.370896719226055 0.0597712983511684 0.462536984498003 3113.65832432908
 0.255214913032814  -0.34985730842729 0.0511224597862958 0.436059966047029 3113.67824432725
 0.221560968097398 -0.356755234007911 0.0261216208895372 0.420768224387479 3113.69818432969
-0.0736709554191597  -0.194815829919921  0.0564374496498547 0.215791109600788 3113.71942433023
-0.0768173523959127  0.0291873113663922   0.122309065513546 0.147350983304196 3113.73930432939
0.0760014585368908  0.225151506210784 0.0743113906973946 0.248981134297561 3113.75920433092
0.113297727999863 0.301691694417138 0.128728403404075 0.347023422110348 3113.77908432817
0.172310775471907 0.404766918390065 0.183620167340454 0.476700773463664 3113.79898432969
0.420888332406384 0.407444139792021 0.100285816458448 0.594318904620596 3113.81916432985
0.256464013977043 0.286208582577145 0.014988148486725 0.384595615941076 3113.83908433183
 0.0743971174387938    0.10380371668568 -0.0768945556214784 0.149073523354039 3113.85898432954
  0.118452193696754  0.0031510433942656 -0.0354658431787256 0.123687821948743 3113.87890433153
 0.145356845942324 -0.136171663659559 0.0393579633713233 0.203028037292516 3113.89882432969
 0.217873362603763 -0.264361279220636 0.0884125155588263 0.353797203198219 3113.91898432939
 0.175135504027539 -0.296440929908743  0.061719686198041 0.349798498225085 3113.93890433137
0.0450425772972114 -0.292584814605026 -0.075927360134161 0.305613598395057 3113.95882432954
 0.0697929985115411  -0.187867093684591 -0.0784182475679054 0.215208106451286 3113.97874433153
 -0.184837720690729   0.142673800499965 -0.0251235931517791 0.234844610907093 3113.99866432969
-0.364950356601294  0.436435217332824 0.0316776397994318 0.569796397474592 3114.01884432985
 -0.322914467261061   0.561142910807212 -0.0526675783811221 0.649560615591968 3114.03876433183
 0.11502001356604 0.405977429816144 -0.08134227190412 0.429725310215 3114.05866432954
  0.20151882193242  0.272265711042371 -0.104653490086167 0.354528991747718 3114.07858433153
  0.102900993508569  0.0642958443831495 -0.0381239931622893 0.127184939849933 3114.09850432969
-0.0160231668806264 -0.0664281064288123  0.0549748193565963 0.0877021434395557 3114.11848432908
-0.0447257587526089  -0.152480466235364 -0.0496261218461444 0.166473535581001 3114.13844432817
-0.0723388294593338  -0.132893235809502 -0.0982221280510191 0.180391531980682 3114.15840433107
 0.0345200203413472 0.00847060259127843 -0.0676622850244626 0.076430149334919 3114.17836432634
-0.106137092577444  0.185557783253142 0.0200013572478506 0.214701717828175 3114.19834432969
-0.147661332567897  0.277914928069862 0.0244042967102207 0.315651938181479 3114.21834432954
-0.0914529397285672   0.215554286023182 -0.0867161488174678 0.249693774198905 3114.23830432863
-0.0127968707795749   0.257740392757976  -0.121008042507495 0.285020729618533 3114.25826433153
-0.0462225183831499   0.302589650138597 -0.0838751314248338 0.317383136363942 3114.27822433061
    -0.120258270121   0.264532046064957 -0.0927628516463125 0.305031476364921 3114.29818432969
-0.0806280543616686   0.229978633401668  -0.173351410001942 0.2990681633359 3114.31912432908
-0.143743912864965 0.0315369424807336 -0.236267394753668 0.278350809322426 3114.33908432817
 -0.215862393481914 -0.0846025138846569  -0.271830036853029 0.357275422063795 3114.35904433107
 -0.354042302742187 -0.0879796247287368  -0.288423179870376 0.465053004704774 3114.37900432634
 -0.28362454532099 0.0672198423287987 -0.160541917549893 0.332768834481 3114.39898432969
 -0.163255643687166  0.0571219156582188 -0.0193481589315029 0.174039276309155 3114.41896432908
    0.074468409971738 -0.000639543833133136    0.0371615243278274 0.083228192281228 3114.43892432817
  0.208559117075748 -0.0240203714520315 0.00765109308635784 0.210077182924575 3114.45888433107
  0.153260499402216  -0.076710173081258 -0.0450374063240452 0.177204964094041 3114.47884432634
 0.0814859124027148 -0.0434632971929819 -0.0443425370218426 0.102446438261766 3114.49882432969
-0.00251858581035905   -0.048833860887245   -0.061289846857115 0.0784062151325234 3114.51888433092
-0.0720739296277878  -0.167852343752955 -0.0280721065078376 0.184816405654744 3114.53882432954
-0.00374007924390784   -0.243684465389188  -0.0725699834990346 0.25428824072264 3114.55878432863
-0.193696295488397 -0.303445266954727 -0.213802357311102 0.418698857073838 3114.57872432725
-0.209404715848722 -0.160570643773631 -0.263697817916938 0.373054695501501 3114.59866432969
0.0330238515171364 0.0231036386944866 -0.283010644967092 0.285866014165099 3114.61864432908
0.0306448566773726  0.109904910497026 -0.235146648718859 0.261365917816089 3114.63860432817
-0.0319800381071172 0.00329844896370834  -0.140758238322695 0.144383116251892 3114.65856433107
 0.0161265169409887 -0.0501889897225306 -0.0850488205461292 0.100061486668468 3114.67852432634
    0.1145873150122 -0.0857982757315313  -0.044480595505423 0.149900367767148 3114.69850432969
  0.214139830561201  -0.189609327795527 -0.0960138653416215 0.301705529544439 3114.71862433038
0.0900371131923942 -0.327462301816041 -0.152997212972629 0.372486762234675 3114.73854433046
0.0787048564875484 -0.382104861790165 -0.230654469363441 0.453210838435863 3114.75848432908
-0.112381744648543 -0.465691250209462 -0.433803585481336 0.646284417132554 3114.77840432725
-0.372142259748564 -0.393472996161258 -0.324200467038859 0.631202663989229 3114.79834432969
 -0.438313611287572  -0.218528551307752 -0.0876670957075556 0.497553081837923 3114.81832432908
   -0.436161447558463      0.11555899795986 -0.000217586099047954 0.451210303173023 3114.83830432863
 -0.111235628467304   0.232125252397939 -0.0337809710853123 0.259608651336564 3114.85826433153
 0.093843450845864  0.248271288382249 0.0679064042272899 0.273964424034804 3114.87822433061
0.226245467833437 0.225290335907138 0.157385027455424 0.35596740586108 3114.89818432969
0.168603055003162 0.194643269048799 0.232489878395877 0.346935924774204 3114.91916433
0.0785248184885896  0.122744235761289  0.174274536267026 0.227164936824273 3114.93912432908
-0.0678998655942144  0.0341449993229513   0.100476412046953 0.12598326120682 3114.95906433153
-0.0645687296434468  0.0563815203721903  0.0359557011469644 0.0929559526454226 3114.97902433061
-0.256109945581949 0.0229642711051201 0.0374425994715691 0.259849206711443 3114.9989843297
-0.127053203857561  0.111762982052879 0.0739842438547461 0.184681209403073 3115.01896432908
0.0990019219818873  0.228338225761809 0.0505516158185172 0.253959035598306 3115.03892432817
 0.128876272925758  0.250576462515995 0.0366650052842158 0.284151332748512 3115.05888433107
0.125846624310171 0.247434168891052 0.113890360735233 0.3000534203329 3115.07884432634
0.079220406446033 0.207052237879983 0.185690127742865 0.289183895730286 3115.09882432969
0.176904934637622  0.18613785149218 0.140026454998017 0.292489425033757 3115.11880432908
0.216965610706601 0.214828155141384 0.115927185451629 0.32659504711106 3115.13878432863
0.301488770590809 0.240675168250204  0.03035205687374 0.386964162114644 3115.15874433153
 0.146771313609217  0.173035807838967 0.0861566864989119 0.242705961858235 3115.17870433061
  0.21406579995578  0.120244227533201 0.0999613676042583 0.265094541586729 3115.19866432969
0.00804934216135163  0.0662156478395898   0.200049003581058 0.210876522547725 3115.21882432939
0.00791988448434135 -0.0299617146051284   0.207531126676389 0.209832307931586 3115.23874433137
 0.261811647159356 -0.135667719279283  0.233276160367664 0.375990472802992 3115.25866432954
 0.319784192551511 -0.178292190527455 0.0767177235980983 0.374079729633904 3115.27858433153
 0.353599125816776 -0.176172856789184   0.27689680804778 0.482432440404561 3115.29850432969
  0.29780344157482 -0.309294340148912  0.327363436466274 0.539922863191555 3115.31848432908
0.0201493386509986 -0.342441934966063  0.334500160341381 0.479127156337213 3115.33846432863
0.00454484277238184  -0.305918105411006   0.248906046442057 0.394411920166595 3115.35842433153
-0.271480292298767  -0.29952942720324 0.0904290330421931 0.414242485609904 3115.37838433061
-0.162503269206632 -0.167478916588986  0.138368613067028 0.271297572946675 3115.39834432969
-0.0659640933604002 -0.0414939879499061   0.160890305826428 0.178769972752049 3115.41826432962
-0.0499268741131138   0.138413088198092   0.174808676440981 0.228492776914911 3115.43846432847
0.177894783938324 0.261648167743673 0.219166321114336 0.384889846770315 3115.45836433
0.229417082980154 0.326508615584688 0.136396670401431 0.421715692986103 3115.47826433153
0.414642585287571 0.190096514476195  0.16124751046021 0.483803594426059 3115.49818432969
  0.210456118731989 -0.0648789453386615   0.171175003351426 0.278929986255245 3115.51922432947
0.0643500122895967 -0.220085031535172  0.133020533766635 0.2650901876552 3115.53916433
0.00329198335017677  -0.252751250225526   0.104480143957866 0.2735144093579 3115.55910432863
-0.296953383115163 -0.247893620008344 -0.016282552268396 0.387166217654323 3115.57904432725
-0.221089271490794 -0.269620697264577      0.10965275248 0.365512670762871 3115.59898432969
-0.272605106341305 -0.169162348591943  0.224925572664821 0.391817505253522 3115.61890432962
-0.215664953427795 0.0608966412816722  0.214320638552606 0.310085648113547 3115.63906433137
  -0.11592443435662   0.235173305707865 -0.0740872293161834 0.272458943230381 3115.65898432954
0.0389343858769707  0.470001620735722 -0.248058619337423 0.532870048440904 3115.67890433153
 0.144103228953008  0.509047729490574 -0.219362738841104 0.572726237120374 3115.69882432969
 0.124197621295835  0.456594712741784 -0.116726308245403 0.487369276704941 3115.71898432939
0.00810420185205633   0.264557310771521 -0.0974205254606958 0.282040790580647 3115.73890433137
  0.20126293485032 -0.121719616616983 -0.106336999309707 0.258127858698247 3115.75882432954
0.00797889125499242  -0.303372011166729   -0.24437584818621 0.389638030794909 3115.77874433153
-0.0603325547361686  -0.337851812813436  -0.251333094896681 0.425384754278596 3115.79866432969
0.0341712940169995 -0.225667087019642 -0.233766456565761 0.326710984991382 3115.81864432908
  0.0122715160444517 -0.00434982134473861   -0.189064423899522 0.189512182817407 3115.83860432817
0.0363078743200513  0.108791660715838 -0.220975089735548 0.248965615020597 3115.85856433107
-0.0779861741230773  0.0405593596861102  -0.231608319721396 0.24772831646114 3115.87852432634
-0.222459700017594  0.113483468975925 -0.261944406461468 0.36191392338397 3115.89850432969
-0.177147385981128  0.225250726229184 -0.335146067891909 0.440955749310664 3115.91842432962
-0.0525842203886515   0.306783738762024  -0.494790300539148 0.584550086913267 3115.93864432893
-0.00768774278881534    0.230213415667601   -0.481573368338904 0.533826027124763 3115.95854433046
0.00310580248930485   0.165914193192023   -0.53881263713706 0.563787392063937 3115.97844432817
0.00594282344185428  0.0720672597631456  -0.456191955952867 0.461887548821499 3115.99834432969
 -0.269478589544692 -0.0999552420569799  -0.417058467040224 0.506505207838584 3116.01832432908
  -0.32079340022981 -0.0511546777180413  -0.492271255197446 0.589793349722688 3116.03830432863
-0.346091121299087  0.022390117566701 -0.517975745215782 0.623361255002711 3116.05826433153
-0.325908532496341 0.0150789417803509 -0.558216772356574 0.646567638363787 3116.07822433061
 -0.264352063336324 0.00716348026489611  -0.606810300207532 0.661930562277972 3116.0981843297
 -0.262583274947147 -0.0908491291188305  -0.551559464292368 0.61759321822224 3116.11908433008
 -0.204573886781077 -0.0228939349275166  -0.557353098658478 0.594152408051494 3116.13922433137
 -0.280005020229953 -0.0503827550229916  -0.600444342024812 0.664435580946183 3116.15914432954
 -0.362037919933917 -0.0427211782706336  -0.639452168053788 0.736067680156926 3116.17906433153
-0.302950331984915 -0.145859395261238 -0.784153473798665 0.853200174230091 3116.19898432969
-0.314174724981685 -0.154678458683766 -0.753477698256329 0.830878947361021 3116.21914432939
-0.263345299537226 -0.366504920077637 -0.640570426312317 0.783586035030877 3116.23906433137
-0.330949231747283 -0.503918473697069 -0.704409158649612 0.927175002314426 3116.25898432954
-0.471517455726985 -0.537421581475447 -0.733621917318877 1.02437873116414 3116.27890433153
-0.313636539559919 -0.453808362687294 -0.744976196978007 0.926984057606093 3116.29882432969
-0.429527650577688 -0.320831676300193 -0.696316330155626 0.87879656278901 3116.31878433053
-0.289921271924973 -0.188319646104273 -0.638957266567922 0.726488142727315 3116.33884433
-0.884888655155329  -0.42230731456011 -0.678731038636928 1.19249621498885 3116.35878432863
-0.456700822461983 -0.330181183677461 -0.711254016772114 0.907456627980956 3116.37872432725
-0.0683865269863558   -0.25510606093626  -0.594633291911484 0.650649345845485 3116.39866432969
 0.299116498147581 -0.123196745922313 -0.634390532024231 0.712109166344533 3116.41860433008
   0.24319615464286 -0.0696591550443089  -0.434637994218702 0.502898551929728 3116.43874433137
0.0305754239439057 -0.292998192132777 -0.673559860900744 0.735163711943846 3116.45866432954
-0.492538578042597 -0.539248363642523 -0.958766443181185 1.20524526181258 3116.47858433153
-0.975659962175549 -0.667199858740633 -0.921330551062002 1.49863871483961 3116.49850432969
 -0.63267708968396  -0.69892873241865 -0.609008356634856 1.12235148294213 3116.51850432954
-0.0666860149490249  -0.367975600202902  -0.617774430053716 0.722148401204809 3116.53846432863
-0.759341841763284 -0.552082913597009  -1.08847589772579 1.43741968682364 3116.55842433153
-0.331903074906368  0.109872002235287   -1.0912157935688 1.14585488441664 3116.57838433061
 0.104648625851021  0.175518489894592 -0.767660062926225 0.794392879751122 3116.5983443297
 0.161701139250798 -0.179107351935117 -0.326323917947083 0.405849727579742 3116.61826432962
-0.560094082466056 -0.488649255699607 -0.878480250761016 1.15074368444342 3116.63844433183
-0.508623339770515 -0.350027048333174  -1.19190377819626 1.34233053038463 3116.65836433
0.771295601394811 0.133152675048297 -1.40391901237803 1.60736278820931 3116.67826433153
-0.265940439050437  -0.18115018560163 -0.950304444881443 1.00330366531139 3116.69818432969
 -1.15941657351291 -0.280519528362395 -0.576108002615647 1.32470314690004 3116.71912432908
 -0.510566198105619 -0.0464395324767618  -0.785688389669595 0.938158152171737 3116.73910432863
0.0073509113832237 0.0389127916127699  -1.12656360553921 1.12725941937727 3116.75906433153
-0.109868967748232  0.163230541311934  -0.77552233976928 0.800093931468217 3116.77902433061
-0.859344499910455  0.176780378255276 -0.448531216455403 0.985344875562557 3116.79898432969
-0.0754557611962581   0.659786110944665  -0.684397823550628 0.953630780215293 3116.81894433053
-0.414442035936136  0.345260310493782 -0.643898145477004 0.839983157510838 3116.83896432908
 -0.845875285017916 -0.0908529587217339   -0.60036088030353 1.04124562160494 3116.85890433153
-0.597848082000369 -0.335646356133563 -0.360651200643492 0.774693548484077 3116.87886433061
-0.032381615279547 -0.216547641594925 -0.650775776249434 0.686622575394583 3116.89882432969
-0.168364099578686 -0.191357327067901   -0.6738834215266 0.720474123378425 3116.91878433053
 0.627340814813572 -0.195071203342563 -0.785207574242922 1.02379695592091 3116.93878432863
 0.531013384977377  0.142265788490491 -0.702830311992248 0.892292114195275 3116.95874433153
-0.741358758658865  0.451739118338847 -0.133950565571979 0.878421194015049 3116.97870433061
 -1.11003709110812  0.176170895785778 0.0140960919254388 1.1240183396926 3116.99866432969
-0.803018311131439 -0.126290574540352 -0.213081315531869 0.840351928812514 3117.01864432908
0.0828439162615255  0.268693659597739 -0.689950861258831 0.745044688674025 3117.03860432817
-0.00994750211105625    0.353730047075685    -0.26703536239455 0.443319054149046 3117.05856433107
-0.684082989166492 0.0184888626110815 -0.157360946345549 0.702192168528232 3117.07852432634
-0.615644811520586  -0.47658694799847 -0.300718474080658 0.834616830412683 3117.09850432969
  0.20878092226642 -0.331690005002859 -0.442972290868708 0.591466130390139 3117.11844433008
 0.616282253284461 -0.348610370805599 -0.533832392742159 0.886741241787822 3117.13850432954
 0.566895886392148 -0.232373543545506 -0.468054282154176 0.771001440200403 3117.15848432908
-0.219312023647832 -0.223685934465916 -0.115938006536111 0.334028116112947 3117.17840432725
-0.00913945245098946    -0.37440631392601  -0.0975649777930908 0.387017496233093 3117.19834432969
 0.119847699698888 -0.206186438481534 -0.328175866310941 0.405679328738538 3117.21832432908
 -0.291260495196996 -0.0972762397515378  -0.212009729436237 0.37315341115716 3117.23828432817
 -0.549246465983428  0.0366614250995066 -0.0451726996395917 0.552319032152922 3117.25824433107
 -0.45382194100063 -0.136906648373481  -0.15046104667433 0.49732917777743 3117.27820432634
-0.0698595456814328  -0.243180501252966 -0.0403259832159923 0.256209479205584 3117.29818432969
 0.742827925159996 -0.330301141421495 -0.190622859207807 0.835002541837093 3117.31910433053
 0.200200784684531 -0.227099659945918 -0.457893099505862 0.548926862442474 3117.33914432954
 -0.177110746620627 -0.0214145636484791  -0.423151408277873 0.459220986489422 3117.35908432817
-0.27909510839837 0.286870475448949 -0.18170712567107 0.439552304891973 3117.37902433061
-0.327209903342114  0.360344421052636 -0.222391996741695 0.535137947489872 3117.39898432969
-0.322167657024885  0.364000229919728 -0.341127282026259 0.5938484563903 3117.41892433008
0.0906763669473606  0.268708431028771 -0.436724542269685 0.520725215684225 3117.43902433046
-0.297779881996921 -0.214400463451083 -0.614379322328132 0.715613281426857 3117.45896432908
-0.475098692453745 -0.072525127543032 -0.335352361639819 0.586037428970024 3117.47888432725
0.0215804778959495 -0.223970604091093 -0.532807144670558 0.578370125382648 3117.49882432969
  1.24777948985776 -0.162345336392842 -0.528281589625435 1.36469450848729 3117.51886433046
 0.126230245398024 -0.547288526134892 -0.728743352543272 0.920068301577744 3117.53880432908
-0.341684686731275 -0.473360662388899  -0.58275248791444 0.824875265730751 3117.55874433153
 -0.98098099096282  -0.18820236051849 -0.367153667249753 1.06421128001449 3117.57868432634
-0.664316224478164  0.050264570558682 -0.580629284060037 0.883726733026925 3117.59866432969
-0.0391135265881266   0.247980987845571  -0.491465091145836 0.551871700769309 3117.61892432977
 0.254791724624916 -0.072272786754314 -0.641475171528299 0.693997531933533 3117.63896432878
 -0.631647669115764 -0.0757466478390715  -0.610983719205025 0.882052967622602 3117.65880432893
-0.793560924390554 -0.219010698439419  -0.52639301402494 0.9771357285274 3117.67864432908
-0.507371587971057  -0.18474263879389 -0.755985416056562 0.92901545743815 3117.69850432969
0.00190595285085228  -0.371831396234007  -0.524282616985184 0.642755382983631 3117.71876432977
   0.5826124271262 -0.330359867468251 -0.201490660930817 0.699409299850853 3117.73868432985
 0.274515660756871 -0.250062189107455 -0.262703559834006 0.454866031674661 3117.75856433092
-0.353053244765303 -0.187508227671762 -0.681475323126435 0.790072493581566 3117.77846433244
 -1.14544974438237 -0.148245891876245 -0.547135522632499 1.27804117362868 3117.79834432969
-0.963968219985609 0.0111974037300846 -0.411212905317651 1.04807259504879 3117.81894432992
 0.288897822715516  0.299630391477557 0.0366446790342403 0.41783149231273 3117.83900432939
-0.254776011803322  0.183502630529197 -0.468493003733338 0.563976707097578 3117.85872433061
-0.300666092613176 0.0635147204755576  -0.51699111999222 0.601426668111062 3117.87844433183
-0.296023692689984 -0.140714351362034 -0.789475576184009 0.854811231035324 3117.89818432969
-0.178055778609757  -0.27977470218128 -0.796295182913143 0.862591306823588 3117.91898432969
-0.191775762721274   0.03797666126176 -0.254322333920474 0.320780329039475 3117.93940433168
 0.323519593833236  0.283512806594203 -0.202878773268323 0.47560933100582 3117.95930432939
-0.693708949428758 0.0548608967446593 -0.364976468726071 0.785779642923468 3117.97914433336
 -0.938258447191915 -0.0195245745391639  -0.316465788295699 0.990384126437584 3117.99898432969
-0.581361130946882 0.0528436856001323 -0.474307978744652 0.752157748337728 3118.01922432931
-0.872482924852867 0.0546854379511015  -1.03264525124813 1.3529867575882 3118.03920433076
 0.396129092985459  0.117135801064867 -0.545624555815271 0.684357516294811 3118.05912432893
 0.980366615766711 0.0402549531087418 -0.160417016094979 0.994219684784242 3118.07898433336
 -0.639274855235817   0.076760327993205 -0.0685476191913691 0.647505416646999 3118.09882432969
  -1.74454801631271 -0.0947170259598643   -0.32778858460994 1.77760075732091 3118.11860433023
 -1.10551937642366 -0.062537191847593 -0.169855701998959 1.12023879218401 3118.13908433168
-0.391079031798383 0.0326406043960078 -0.311526743444701 0.501056014881528 3118.15910432832
  0.124825400150335 -0.0077930108166655  -0.404025641743322 0.422940694100701 3118.17886432664
-0.554007399577419 -0.163932979051433 -0.330799455602352 0.665752581845556 3118.19866432969
0.0516723471854875  -0.44303027334562 -0.820566060763896 0.933956377269265 3118.21846433069
-0.593831430390466 -0.334796447826027 -0.749097005038436 1.01285277911159 3118.23838433076
-0.285647314723238 -0.149026471207623  -1.08209471792616 1.12904041384394 3118.25868433
-0.195430582171271  0.294032762970991 -0.112513461115951 0.370550478451246 3118.27870432664
-0.290505483936193  0.402038491056334  0.278738539829061 0.568967097531916 3118.29850432969
-1.20469918189836 0.409221723402947 0.140601473523897 1.2800512927725 3118.31826432977
-0.473907278692003  0.193738402110463 -0.449848273078652 0.681532204698664 3118.33832432924
-0.272416499326804  0.212627747067908 -0.651218651557764 0.737229299516343 3118.35822433076
-0.0435206030921807   0.321164032820034  -0.613500741169978 0.693846912716953 3118.37828433214
 0.766269491888661  0.315159786136004 -0.463794480630855 0.949526168812763 3118.39834432969
0.0342569151448477 -0.122086356192806 -0.272030470075102 0.300131956400779 3118.41822433061
-0.977519857306744 -0.398129564320249  -0.38322422274556 1.12290383662795 3118.43812432832
 -1.23930609445608 -0.369052997905509 -0.681576665763022 1.46172037761388 3118.45822433061
 -1.22025431683916 -0.356700069697776 -0.839539649415565 1.52350988195936 3118.47832432908
-0.279688467771962 -0.245210460596188 -0.441891912542309 0.577600442659735 3118.49818432969
 -0.236355384834478  -0.432435752136113 0.00282020405442874 0.492820962639262 3118.51922432947
 0.370407466637951 -0.378932721774702 -0.563214306265817 0.773305925074426 3118.53904433107
 -0.705006539265129 -0.0138457819807077  -0.742028443555826 1.02363672126938 3118.55886433076
-0.542051140842367 0.0632291655346501  -1.23133517844581 1.3468495418349 3118.57890432786
-0.434281612105998 0.0352380014342448  -1.16917010352591 1.24771830408039 3118.59898432969
 0.710988592716715  0.115299315445503 -0.699852229808723 1.00428673927506 3118.61916432985
0.326093905232622 0.203740368430172 -0.56237236646818 0.681256230301746 3118.63904433092
-0.157031206453413  0.186038470761196 -0.379360054922123 0.450758431617086 3118.65888433107
 -0.39372327210054 0.0691409662844738  -0.41015626917794 0.572736111449482 3118.67872433122
-0.570725403266316 -0.136486128160586 -0.478345735866155 0.757080307586388 3118.69882432969
  0.278698777138904 -0.0446513230038778  -0.462110243049143 0.541491113274867 3118.71892432992
-0.0403618358646908  0.0301311266474372  -0.449850792577921 0.452661792258189 3118.73892433183
-0.574500355378256 -0.167234571675114 -0.468851862807489 0.760157963551756 3118.75876432817
-0.534261961166781 -0.279887046863389 -0.281246905645668 0.665486606992919 3118.77858432786
-0.487088852017658  0.115164092993957 -0.412973226512324 0.648895372067793 3118.79866432969
-0.021159575995834  0.255035299692697 -0.506895426674355 0.567832462376927 3118.81848432924
-0.101774878149227  0.151831640768928 -0.488521980434066 0.521598215418819 3118.83860432817
 0.168829928355318 0.0540712739325001 -0.639076766565916 0.663209138158915 3118.85848432924
 -0.545741155900523 0.00735879601955589  -0.476858793165661 0.724763319809927 3118.87832432939
-0.514012960913915  0.264652836140512 -0.376181706251294 0.689755843601808 3118.89850432969
-0.0337801505265698   0.240888125054174 -0.0780313360397724 0.255454647180013 3118.91860432992
 0.703850693664724  0.123434153779784 -0.593639396820567 0.929004587044182 3118.93908433137
 0.355350381526408 -0.158353834903738 -0.370097246213445 0.536956052516833 3118.95884432969
-0.201856989182848 0.0352654215751767 -0.520081760551884 0.558994572155747 3118.97858432756
-0.749263109880928  0.197817380071624 -0.586477386192017 0.971844971279608 3118.99834432969
-0.182970868096822  0.184772181614541 -0.612193446303661 0.665131500808566 3119.01814433069
 0.641595764733003 -0.109345845961046 -0.351754003773882 0.739819247197057 3119.03862432832
 0.235044837750142 -0.179013620700759 -0.113054208992363 0.316343494196221 3119.05900432939
-0.776165116009273 -0.149763107383282  -0.20807541700374 0.817408499346603 3119.07858433122
-0.561634790783945  -0.12632809695878  -0.19872484743059 0.609002455895264 3119.09818432969
-0.501473766129909 -0.203662920341646 -0.311676498700112 0.624577267502239 3119.11876433038
  0.23385382740082 -0.210786688977387 -0.668488119850615 0.738914749630478 3119.13866433
 0.473347030976896 -0.152752527155611 -0.504896093143497 0.708738887855489 3119.15980432939
  0.342146260147503 0.00977571736453819  -0.341442589528732 0.483469409504883 3119.17938433122
  -0.1075965186669  0.113516369681573 -0.246747979727732 0.292143017227243 3119.19898432969
-0.145419706345464  0.249323559157986  -0.37799561867238 0.475594171411217 3119.21886433061
-0.121250992265681  0.309465024798253 -0.316791176844438 0.459159073116583 3119.23946432908
-0.185273152659129  0.375310107433909 -0.211923799516998 0.469143383881757 3119.25968433031
 0.424510298817598  0.528479491453151 -0.584537887231187 0.89508888290353 3119.27926433214
-0.0018043929503539   0.615136718010765  -0.826337725232599 1.030160411694 3119.2988243297
-0.116508296156943  0.566839927506174 -0.617272352348136 0.846112784126324 3119.31832432954
-0.209017400780598  0.427365513629464  -0.51169716159125 0.698687012366335 3119.33812432878
0.0719701246193714  0.242663291343589 -0.354831906553585 0.435856459986408 3119.35936433046
 0.119724029226827 0.0829461951373884 -0.385351392888132 0.411958263010829 3119.37920433061
-0.0238922934982879  -0.107418453047209  -0.406025605533478 0.420673695508159 3119.3986643297
 0.0178735254470466 -0.0992079979712139  -0.404422947723147 0.41679684549963 3119.4183643303
 -0.22211676701023 0.0530338652141648 -0.233880521667887 0.326876960739472 3119.43802433015
-0.213124267953284  0.225028195498238 -0.280498503437284 0.41801800534232 3119.45840433122
-0.0989997431921382   0.419578662979247  -0.373259802922401 0.570236866624065 3119.47884433366
-0.457574852066325  0.456125717109011 -0.363355374071401 0.741250661327393 3119.49850432969
-0.296218367453364  0.546818944381776 -0.460975705221752 0.774115546902545 3119.51818432985
 0.214762604744951  0.547901853968455 -0.390462314087601 0.706243751619475 3119.53788433061
-0.667283356407683  0.366773837781016 -0.228002194203614 0.794842831244631 3119.55840433107
 -0.53819215701942   0.40811000471676 -0.331050607905643 0.752196170438155 3119.57806433092
-0.304954957718952  0.419068599554337 -0.349251270169868 0.624973973126135 3119.59834432969
-0.114963504490485  0.233672747824617  -0.40551397586652 0.481934793373246 3119.61792432947
-0.230435923446781 0.0247461948146372 -0.426651799273573 0.485535628760601 3119.63748432893
-0.127918383862461 0.0989720272858449 -0.384914978651098 0.417514210422866 3119.65748432893
-0.310878390731237  0.266272882536396 -0.213641104381413 0.461724098655458 3119.67784433336
-0.477959878554315  0.504495696556537 -0.276277933194105 0.747857640010268 3119.6981843297
-0.260934738197534   0.40576514971692 -0.382849763312482 0.615878425983111 3119.71882432985
-0.301203656842807   0.38804753192915  -0.54963583433386 0.73715946735809 3119.73844432878
-0.138463325707633  0.512066067080115 -0.445749338472821 0.692875329601128 3119.75806433153
-0.207270785270118  0.463500154699332 -0.356489461166351 0.62038561214415 3119.77822432756
-0.517146055037857  0.568401958351232 -0.396655251100732 0.864786804203509 3119.79898432969
 -0.38797018656069  0.458772377015967 -0.462075715461789 0.757962351566581 3119.81886433061
-0.0206337583664026   0.240770767352388  -0.451980328634251 0.512525640205547 3119.83874433168
-0.497525632781422 0.0176009790141257 -0.303575457864089 0.583094853650931 3119.85882432969
-0.357482223185749  0.174267127694696 -0.333614930536947 0.519096805582501 3119.87896432908
 0.155780687249482  0.480098267897776 -0.347670847990693 0.612892313462106 3119.89882432969
-0.268406414545125   0.41467391765604 -0.320352969377669 0.588746538284743 3119.91900432985
-0.444070217978562  0.154675058081759 -0.222972729957608 0.520422492205007 3119.93878432863
0.0578145882483555  0.155114508315518 -0.178833830502411 0.243689507850578 3119.95854433076
 -0.253484009927033   0.154896502350051 -0.0870218587157413 0.309547853527221 3119.97840432756
-0.342998371814663  0.247183286515122 0.0615823584073771 0.427246822184719 3119.99866432969
-0.213960748344875  0.438210455483566 0.0458070760483473 0.489801891935415 3120.01904433061
-0.233833339679706  0.265205489963817 0.0425182930437687 0.356117660185603 3120.03880432893
-0.0950974208531718   0.305300117004074  0.0248731719127054 0.320734088579037 3120.0588643303
0.0539079199192865  0.419845038327564 0.0241883442377103 0.42398230627617 3120.07862433244
-0.124286459780016  0.430791320552347  0.070198116458854 0.453823822096478 3120.09850432969
-0.349497830679804   0.59631294927921  0.140932515568907 0.705407570892558 3120.11888433061
-0.170553049616819  0.664871059057215   0.17188886489934 0.707592855943192 3120.13874433122
0.253101576476486 0.547315614838273 0.158621608357643 0.623518728586917 3120.15868432985
0.192356252813191 0.386305236225744 0.159607899071022 0.460116664529363 3120.17840432725
-0.00505547484205847    0.345490016910239    0.240804039163805 0.421159702355436 3120.19824433122
-0.115410942587595  0.381039822971673  0.274274209473741 0.483463932824039 3120.21814433069
-0.271758732845497  0.387273598713601  0.331670932393218 0.577788245409129 3120.23848432893
-0.0358254251551198   0.196183402969494    0.27158807085525 0.336944311302495 3120.2585443303
  0.15397521802383 0.0443893484889196  0.211911592454165 0.265678951069174 3120.27826433153
 0.174028985883364 0.0441140011168458  0.201529912639132 0.269900794201249 3120.29818432969
0.186948279879293  0.10658149063138 0.204293671620614 0.296724076810873 3120.31970433092
-0.0615724618425577   0.256985481445337    0.34678718308732 0.435997770733616 3120.33996432924
0.132263222104198 0.264008843172415 0.340705025511203 0.45085933904402 3120.35986433076
0.0770739969318201  0.305249828908205  0.360942877929265 0.478954716209576 3120.37938433122
0.00766786336797025   0.374202801959678   0.407234407005438 0.55310613391299 3120.39898432969
0.0416976533263651  0.246331779933896  0.484572170536531 0.545186416335561 3120.41906432947
-0.0497798706559999    0.27256048649471   0.564368870265078 0.628712554387966 3120.43928432878
-0.161682828826579  0.252490590829478  0.592351535107322 0.663907506162406 3120.45920433076
-0.051755997986787  0.220913546520988  0.574783213580607 0.617945969303255 3120.47892432817
0.208309740999848 0.177322672953732 0.686184720634505 0.738705455084186 3120.49882432969
0.248083027068195 0.245097384780442 0.707578758030723 0.788850819332674 3120.51844433038
-0.198415455586707  0.230147503744917  0.775644314941783 0.833043017975185 3120.53878432863
-0.583358149886353  0.175970846609264  0.799450924596494 1.00518369004546 3120.55944432847
-0.183033213046456  0.185597841947838  0.738582432343578 0.783231591153191 3120.57904432695
0.0427328256030406   0.22980547974437  0.786073340844572 0.820090208508251 3120.59866432969
0.497749688827003 0.374923395533093 0.858530866444412 1.06084756392388 3120.61890432931
0.138255394191362  0.34243369401857 0.888535273275243 0.962221554880435 3120.63896432878
-0.454156243137853  0.257080931454443  0.869995891081523 1.0145153271377 3120.65906433107
-0.519473474807759  0.073757875775279  0.791160822373527 0.949330480984617 3120.67856432725
0.118906976672105 0.104032704320539 0.830563563216201 0.845456980107171 3120.69850432969
0.409814396510289 0.202683770446103 0.926268423668015 1.03295776441913 3120.71898432908
0.570038624874804 0.137162075984739  0.84472031976182 1.02825575007199 3120.73858433137
-0.33030354417992 0.147852909391639 0.827772503866326 0.903420296578794 3120.75864432893
-0.369041885224109   0.19444894811417  0.891871387977402 0.984599857386344 3120.77852433
0.116924963242945 0.122882612407511 0.943096600986793 0.958228982161519 3120.79834432969
0.290602647296235  0.14653210477229 0.893265825520558 0.950707837028549 3120.81862433023
0.271859593364472 0.127841069160999 0.844041840984328 0.895911606577757 3120.83882432908
-0.108139916749499  0.106954746407851   0.76115492857745 0.776202541010721 3120.85836433
-0.397142529360386  0.137181723402283  0.829824443200332 0.930134194831652 3120.87762433214
-0.0762105794826297  0.0521893239260071   0.935878938129303 0.940426054929873 3120.89818432969
 0.591318096805159 -0.123522163950821  0.901089162479477 1.08483938688376 3120.91846432924
 0.538889362476508 -0.091434912480843  0.768880581407664 0.943366014162321 3120.93884433031
  0.296068501823307 -0.0402625535698746   0.766208077515104 0.822406498661858 3120.95916433
 -0.268044917130076 0.00199708547755306   0.794143259184763 0.838162026137114 3120.97868432664
0.000750741169642036  -0.0942593693828009    0.760391648534291 0.766212014712275 3120.99898432969
 0.184513379182795 -0.269970886700901  0.766410106683754 0.833255014020635 3121.01966432985
 0.423207539958892 -0.273527371351335  0.854108601565162 0.991677038165161 3121.04010432847
 0.577026695311797 -0.136980767512382   0.79430160113116 0.991281277605029 3121.05984433015
  0.280842684539507 -0.0432540573684312   0.607093008180042 0.670302504485312 3121.07962433275
 -0.296975791370623 -0.0933491156648184   0.703180792130829 0.769007090004606 3121.09882432969
0.0116829439770616 -0.100701526294045  0.873518014260852 0.879381037898899 3121.11930432908
0.394621434452129 0.150039090794426  1.00886262664179 1.09363687059738 3121.13976432817
-0.0622186651505728   0.306271026442849   0.790532809579208 0.850067777858137 3121.15918433015
0.215710109941595 0.133504371924096 0.709146325425247 0.753155216219069 3121.17828433244
 -0.200322242704681 -0.0688793494638661   0.710254810100396 0.741171546253327 3121.19866432969
-0.0998148986272602  -0.142494416386079   0.699683432563291 0.720988611902247 3121.21906432916
  0.32173695690762 -0.205281579157185  0.636645548624143 0.742275387416543 3121.23850432969
 0.375941347954396 -0.197876527982653  0.600489373174433 0.735577667363319 3121.25832432939
-0.0729434829159398   -0.15842228919059   0.689173709535903 0.71089997561385 3121.27858433153
-0.0729879090139788  -0.184216502684042   0.728396938093062 0.754867573913942 3121.29850432969
 0.456962487467548 -0.343214641245649   0.79675906830082 0.980528438056489 3121.31878433023
0.0525149919789195 -0.195349886776385  0.749863566678769 0.776669022993899 3121.33906433092
 0.419175953062444 0.0211603292574571  0.684795016145258 0.803181457266959 3121.35868432985
-0.0783626537804773   0.155621292624285    0.59431181873775 0.619326432599921 3121.37792433153
-0.518503885556049 0.0754917531151665  0.698723342213644 0.873361089744286 3121.39834432969
-0.109267171375802 -0.118755238430613  0.764347131016416 0.781196939374577 3121.41812433023
 0.119268524115899 -0.112622067005013  0.849046938142845 0.86474817952454 3121.43848432893
 -0.250947233003134 -0.0434196950461532   0.785934233397408 0.826167297159481 3121.45830432863
-0.508965299263925 -0.116083575377979  0.791403759234929 0.94807224537929 3121.47868432969
   0.2093201461379 -0.387414112110866  0.877719415271494 0.98198573807687 3121.49818432969
0.0709329690642047  -0.57268778941682  0.876374666133143 1.04930231377204 3121.51954432916
 0.176237753366776 -0.644024465072963  0.840450515972322 1.07339849409361 3121.53924433183
0.0558058563977695 -0.382953239132784  0.809487253882716 0.897238592108677 3121.55922433137
-0.186903773536089 -0.195282411299466   0.71758147816272 0.766805984931755 3121.57930432939
-0.429063656746665 -0.147587572386627  0.619276432893719 0.767711543095039 3121.59898432969
-0.033493666474474  -0.41684099703215  0.794311046031082 0.89766824626231 3121.61904433092
 0.286999833408624 -0.379774152393189  0.810513242326207 0.939962247746517 3121.63894432863
 0.242420479424033 -0.229920083614102  0.714326071468569 0.788601718279267 3121.65884433015
 0.549798265088002 -0.104492886105965  0.717080750600522 0.909616236894625 3121.67874432786
 -0.484781467233027 0.00454313080286322   0.652086516332966 0.812558019955106 3121.69882432969
-0.533396364167887 -0.235691214910677  0.762300620724863 0.959773028612028 3121.71888433092
-0.289356460277616 -0.290580636818712  0.725228409409741 0.833138952044221 3121.73862432878
 0.129848615754594 -0.250273588412053  0.668270008232808 0.725315335542761 3121.75836433046
0.0478935135430976 -0.188399310321833  0.623084465633375 0.65270386859806 3121.77840432756
-0.100879773975914 -0.348872264332065  0.661601385524743 0.754721789102364 3121.79846433275
0.0471258427022201 -0.319744993930225  0.678044327563322 0.751133687391686 3121.81872433092
-0.0606522270702598  -0.484754796550316   0.660746311784953 0.821736937203469 3121.83862432863
0.0551357765753865 -0.489907827758107  0.592930069417493 0.771113286603643 3121.85874433137
-0.000348690245714002    -0.354903116745691     0.517839574295149 0.627785129297337 3121.87862433244
0.0898312493446083 -0.424798769671499   0.43639454555393 0.615600395924543 3121.8985043297
0.139677970073922 -0.50136531306519  0.42064348053125 0.66919208765673 3121.91864433084
0.0487056137876365  -0.54441559506351   0.28744804112417 0.617565343351543 3121.93850432954
 0.273769251607222 -0.444558305900834   0.27254187007102 0.588948861458112 3121.95838433061
 0.273480302539375 -0.330280442248348  0.182768084597975 0.466133906894151 3121.97846433244
0.0339894415978116 -0.166118140619209  0.170505034219204 0.240463064683552 3121.9983443297
 -0.171684173032957 -0.0545871833145712   0.148291528195815 0.23333579491128 3122.01860432977
 -0.250957654171894 0.00169596584252761   0.194205715817264 0.317330238936813 3122.03842433137
-0.0523912982170761  0.0661745889170217   0.239694144020365 0.254120457706307 3122.05824433107
0.165010988524505 0.116408568301203 0.227893647441672 0.304491536256822 3122.07838432664
0.00601934169775309  0.0873094938949675   0.268259191833306 0.282174014044043 3122.09818432969
-0.460030747179935  0.125089328590301   0.30317755596905 0.564971024851247 3122.11910433053
 -0.42217125694879 0.0179905011062514   0.34153271754588 0.543320186886195 3122.13904433107
-0.309375233916513 -0.238659109989871  0.239804215996221 0.458450944105928 3122.1589843297
-0.244631821146902 -0.295269816329793  0.177462605189816 0.422518601476711 3122.17904432725
-0.127311555299107  -0.36246992017857  0.190103665449412 0.428639800723449 3122.19898432969
-0.00902177206298978    -0.39603855029691    0.212615020814097 0.449592118222966 3122.21888432916
 0.294323347278939 -0.358337241910027   0.23191124078122 0.518473369898445 3122.23878432878
 0.477409180467259 -0.317218685873477  0.181731311924556 0.601309811990072 3122.25868433031
 0.172436427324799 -0.195561613701364  0.318228746466932 0.411397862536909 3122.27892432817
 0.022268835663768 -0.166448712350074  0.302666135357369 0.346132726532732 3122.2988243297
-0.140342045381146 -0.174519882906127  0.345144297275681 0.411433670441853 3122.31878433053
-0.184834699613949 -0.193019591365119  0.313986072837615 0.412319879181351 3122.33874433153
-0.0600880474116383   -0.19773848025508    0.26914058835076 0.339334254553126 3122.35876432817
0.0292197067071348 -0.331500421162194  0.289577526319552 0.441136559627644 3122.37870433061
 0.149504534156806 -0.453526309837301  0.319594010054533 0.574611217007482 3122.3986643297
 0.133962939629544 -0.440431399188667  0.316530567234032 0.558674759210557 3122.41858432962
 0.344032781429085 -0.420159318521532  0.202122921195066 0.579436004154676 3122.43850432969
0.241544754580404 -0.36609274631415 0.184318729028778 0.475753256678216 3122.45840433122
0.233788324234868 -0.26927913728307 0.129269383700902 0.379313600977968 3122.47858433153
-0.111444232995877 -0.160168374253684  0.163664294606595 0.254675728148919 3122.49850432969
-0.223211889587924 -0.233610221775913  0.220494698969525 0.391171568043057 3122.51846433053
-0.199923680970839 -0.116662185773898  0.119224312490571 0.260372772177359 3122.53840433107
 -0.116770087952216  -0.135433948664887 0.00426257429908071 0.178873635371417 3122.5583443297
 0.0599815363551855  -0.291402855063198 -0.0223719766659779 0.298351996779735 3122.57838433061
0.0718053262355998 -0.440378068605431  -0.04475206254539 0.448432375377288 3122.5983443297
0.0475681636964774 -0.439345719841028 -0.133041191796733 0.461505525920092 3122.61832432908
 0.299441989088558 -0.560405100381651 -0.153965677735963 0.653777340754308 3122.63828432817
 0.379615083897415 -0.586909043951745 -0.238544038789486 0.738561504708167 3122.65824433107
 0.126442118292021 -0.431806800670788 -0.307856656750902 0.545179276467437 3122.67820432634
-0.163880828822321 -0.372794252641848  -0.18525153870967 0.447381954768613 3122.6981843297
-0.0730087008919555  -0.456509076919564  -0.095380479146486 0.472046865806878 3122.71908433008
-0.127291880114159 -0.389846937158227 -0.235816239781407 0.473067813425612 3122.73900433015
 -0.13457267614161 -0.394010323061012 -0.301948210356682 0.514321554652497 3122.75892432832
-0.214167913750224 -0.462120688755597 -0.175769061573338 0.538811831034214 3122.77906433153
-0.0761405524459073  -0.454558130751426  -0.244070463089563 0.521527438311497 3122.79898432969
-0.238708491974056 -0.486896067665879 -0.211185494386749 0.581935424156667 3122.81896432908
-0.235732848062818 -0.613780942681924 -0.140838031185947 0.672407891300848 3122.83892432817
-0.0175444339745078  -0.652516281582718  -0.277698026391053 0.70936697044302 3122.85888433107
-0.0173265645875088  -0.617641232722174  -0.386475988896472 0.728796674109094 3122.87884432634
-0.0726234068448147  -0.531772331005303  -0.442971847847037 0.695902312993411 3122.89882432969
-0.0464861993564355  -0.481935121272187  -0.342910135190323 0.593304128303933 3122.91880432908
0.0598730439079739 -0.449389225449764 -0.329460434888137 0.560428082356537 3122.93876432817
 0.178166434112388 -0.423473880369476 -0.334255979242357 0.568155317900635 3122.95872433107
0.00640359237791556  -0.237969654843758  -0.478453962305428 0.534405049253432 3122.97870433061
-0.422550538435706 -0.114095173462611 -0.418265899053747 0.605403194946151 3122.99866432969
-0.464063821055969 0.0203297557053702 -0.306245258485356 0.556376389977926 3123.01864432908
 -0.416807887326706 -0.0592069228460555 -0.0922166333663994 0.430973528328694 3123.03860432817
 -0.575122577917616 -0.0413269390166189 -0.0983176734409437 0.584927568533 3123.05856433107
-0.717039873215406 -0.146640008303003 -0.116709426781213 0.741127898621736 3123.07852432634
-0.499637289322055 -0.123354042457518 -0.264496438397581 0.578629420783897 3123.09850432969
-0.326287767992254  -0.24504207445291 -0.438949478397518 0.599321258073669 3123.11848432908
-0.192986782317379 -0.416213178785276 -0.496803642106183 0.676233071620819 3123.13844432817
-0.0878496395957455  -0.544506054108665   -0.37696098859032 0.668059869365824 3123.15840433107
 0.295251263236931 -0.387840748303582 -0.667822800764819 0.826789603048474 3123.17836432634
 0.209220716911685 -0.118204611424433 -0.904854209442224 0.936219407453377 3123.19834432969
  -0.18746141527884 -0.0237340330801765   -0.77403087259059 0.796761493966637 3123.21830433053
  -0.33523376208541 -0.0244866184235001   -0.64137090646835 0.724111807242355 3123.23824433107
-0.447735786882858 0.0838511634297233 -0.555813712012095 0.718628718410831 3123.25820433015
-0.481423890973968 0.0979900725636109 -0.450776540286295 0.666761206425523 3123.27822433061
-0.778489745740522 0.0921181005698659  -0.39054830597287 0.875819620683403 3123.29818432969
-0.845113496500122  0.108314370130571 -0.408310603412497 0.944810231529338 3123.31912432908
-0.570388174355348 -0.138467468990605 -0.550012507814804 0.8043815438993 3123.33908432817
-0.180266446154159 -0.380186463432747 -0.653668680894699 0.77738052649212 3123.35904433107
-0.0615050452638862  -0.333866782028519  -0.878285996059641 0.941613609507354 3123.37900432634
0.00135997460950292  -0.329347847266029   -0.87725679480586 0.937043936036489 3123.39898432969
-0.265126060722398 -0.176072046316054 -0.820568424488156 0.880128247947465 3123.41886433061
-0.433307665560236 -0.048605965344159 -0.844212888069785 0.950164971614628 3123.43872433122
  -0.63583430524617 -0.0451527431155839  -0.789361273239378 1.01460103175033 3123.45860432847
 -0.548065698486786 -0.0316675973289169  -0.721246381191154 0.906407849127384 3123.47888432725
-0.457696080479672 0.0100294044418884 -0.763874164644809 0.890556023196586 3123.49882432969
  -0.684544183211672 -0.00812850054693456   -0.847884275975181 1.08975894432486 3123.51866432969
 -0.538143309020541 -0.0608352842810387  -0.807142237821653 0.971996782367553 3123.53850432985
-0.560355992943535 -0.160458286400366 -0.866845050404667 1.0445889344203 3123.55832432954
-0.443646877016074 -0.182598690282981  -0.97730834299397 1.08871319936189 3123.57816432969
-0.304618116769172  -0.15918773919869  -0.99989451705285 1.05731829578776 3123.59866432969
 -0.336131340112966 0.00645918158294927  -0.788480099808598 0.85716210055452 3123.61882432939
 -0.71910958674431 0.0663647576953087 -0.537255947698713 0.900092679755353 3123.63874433137
  -0.872804492920084 -0.00432154631724339   -0.491050214853944 1.00146725964065 3123.65866432954
-0.710471932757775 0.0182445439783594 -0.627463020487977 0.948057526050736 3123.67858433153
-0.550552039381275 0.0774437885904714 -0.801015432547968 0.975054260868663 3123.69850432969
-0.679758150436979 0.0646550956023237 -0.726797052901906 0.997238878393609 3123.71718432985
 -0.466858965845726 -0.0465600685635523  -0.837872071644431 0.960288884876272 3123.73594432817
-0.710423394336188 -0.135308800203519 -0.751907255974714 1.04325183547411 3123.75418432985
-0.831170604998579 -0.106488248845993 -0.717482341234759 1.10316147129045 3123.77242433153
  -0.774341056232866 -0.00442915309614337    -0.89218961415993 1.18136615677775 3123.79066432939
 -0.737455213989693 -0.0149470737979912  -0.971253413701313 1.21958878368168 3123.82220432945
